2.508255064272090749e+03  2.550211726589933733e+03  2.718618337463376520e+03  2.763140383708756872e+03  2.788005607013225017e+03  2.767890518634104865e+03  2.645775843160325167e+03  2.641844911410469649e+03  2.618809488249467904e+03  2.621806226566051919e+03  2.687766184874533792e+03  2.741814936990900605e+03  2.850944497524299095e+03  2.881264886909536472e+03  3.030402505527320955e+03  3.178564592842419643e+03  3.310930357595152600e+03  3.490608537941228860e+03  3.606681181154609476e+03  3.697017089498308451e+03  3.707296296665872433e+03  3.735052356018318278e+03  3.803286704377508613e+03  3.858832144106093892e+03  3.960106218023862766e+03  3.895739886913192549e+03  3.866706998314543398e+03  3.918460276895646530e+03  4.025073458304434098e+03  4.148060974656839790e+03  4.373441279352350648e+03  4.377541311240147479e+03  4.166218187625921928e+03  4.039163372304962650e+03  3.973608965028710372e+03  3.946853311305250827e+03  3.942014474634513135e+03  3.936588623665536943e+03  3.931409646361969862e+03  3.926556342096630942e+03  3.921128468215430985e+03  3.915702588887629190e+03  3.979472201149301782e+03  4.134635274490784468e+03  4.343868215240927384e+03  4.532179983584247566e+03  4.291525957553672015e+03  4.228044592530375667e+03  4.196097532588621107e+03  4.150508256795885245e+03  4.146618127689750509e+03  4.217396974103232424e+03  4.396634998089200963e+03  4.652015454536624020e+03  4.759935274923347606e+03  4.871518564475826679e+03  4.732263720135601034e+03  4.494538188853030988e+03  4.297951997930746074e+03  4.196934713790511523e+03  4.067235645412561098e+03  3.869188434374532790e+03  3.807947070728091603e+03  3.792667629521023628e+03  3.779568464792606392e+03  3.766469301060427824e+03  3.753370137332164632e+03  3.740270998424358368e+03  3.727165410797068034e+03  3.718448242818968538e+03  3.818343496890331608e+03  3.986227950590926866e+03  3.954642462277907725e+03  4.173080450204986846e+03  4.393610129084836444e+03  4.426774685390040759e+03  4.263078850223629161e+03  4.419193485928622067e+03  4.518848834402158900e+03  4.483316084759077057e+03  4.474857559793640576e+03  4.514789972384939574e+03  4.275092859436997969e+03  4.067136551292956483e+03  3.989201986800112536e+03  3.908175402614278028e+03  3.897741527173312534e+03  3.914906910682885609e+03  3.989779038880757525e+03  4.146703093649444781e+03  4.343684886071199799e+03  4.675523332772029789e+03  4.820090259166309806e+03  4.968624606023735396e+03  5.098689918721078357e+03  5.254682998158651571e+03  5.203582396639243598e+03  5.161799208732767511e+03  5.068885504783032047e+03  4.984166780543027016e+03  4.790432661840858600e+03  4.674166474042554000e+03  4.560149298148419803e+03  4.588287024410626145e+03
2.406799664770917843e+03  2.607229120553756729e+03  2.671443341083899213e+03  2.646364177957137144e+03  2.529147812703654381e+03  2.529147813703654265e+03  2.548095463226114589e+03  2.597554487375179633e+03  2.672071778224142236e+03  2.834627029395062891e+03  2.861860387114533296e+03  2.967439206718355763e+03  2.955167748267322168e+03  3.070120383002029939e+03  3.056572781720814874e+03  3.162392029986998750e+03  3.281804007057462513e+03  3.433863827531382412e+03  3.573899240172667305e+03  3.699945078372351418e+03  3.789373058360386040e+03  3.847582248455386434e+03  3.909404613935448197e+03  3.979475540995889332e+03  4.027288494958803312e+03  4.078417282819124011e+03  3.930798861622115965e+03  3.991353102021895211e+03  4.110434725121757765e+03  4.188103864147884451e+03  4.337261431830154834e+03  4.231147879381766870e+03  4.132793445516785141e+03  4.010714239088889826e+03  3.941672734576693983e+03  3.933994220923468220e+03  3.928530656982862183e+03  3.923489458375905087e+03  3.918063601073610698e+03  3.912884665583125752e+03  3.908022619842278800e+03  3.902603457994589007e+03  3.897124545685970133e+03  4.020830344270984369e+03  4.231751763418635164e+03  4.420063600865124499e+03  4.443239272925799014e+03  4.281280170855237884e+03  4.155201992385522317e+03  4.054206248221699752e+03  4.080279165906747494e+03  4.133914094907783692e+03  4.326703939796555460e+03  4.566755223636567280e+03  4.797912950367523990e+03  4.972036222021479261e+03  4.811777518829989276e+03  4.652479678691780464e+03  4.480771030741499999e+03  4.392383706468963283e+03  4.112532840875946931e+03  3.930121246580999923e+03  3.903590474313341929e+03  3.787271733985355695e+03  3.774149892116811316e+03  3.761043488909500866e+03  3.747944291356933718e+03  3.734845127098691137e+03  3.721745964302063840e+03  3.708637324927461123e+03  3.701082276511771397e+03  3.814797829779475251e+03  3.878518340745839851e+03  4.152109402415318982e+03  4.340858386081057688e+03  4.424330120591668674e+03  4.207780260643223301e+03  4.223982506023505266e+03  4.362470850984166646e+03  4.305629084567374775e+03  4.395868489713110648e+03  4.478851203901656845e+03  4.368288524438529748e+03  4.130000617687422164e+03  3.923311870696709775e+03  3.874624714728958224e+03  3.882077834370376422e+03  3.904647870912448525e+03  3.971203641755349963e+03  4.183660013837361475e+03  4.383555623334686061e+03  4.692846828314417507e+03  4.830695407568558039e+03  4.958584235082038504e+03  5.134265325640953961e+03  5.216217171965680791e+03  5.192805115770800512e+03  5.100948222307742071e+03  5.026042382378612274e+03  4.997543139043560586e+03  4.987500452218243481e+03  4.838338476678064580e+03  4.709212901855699783e+03  4.674875851020018672e+03
2.389757127389766538e+03  2.516693299432900403e+03  2.475562405392596702e+03  2.475562406392596586e+03  2.557834445843000140e+03  2.714540077878703869e+03  2.773805385835058132e+03  2.850083613885554769e+03  2.970756437582786020e+03  3.048527891236625237e+03  3.084622018643550746e+03  3.044044538046354774e+03  3.147344627477609265e+03  3.124758132566069435e+03  3.169912290719124485e+03  3.156148081504952643e+03  3.278540197965674452e+03  3.374382932396320939e+03  3.456702083982356726e+03  3.569724143411386649e+03  3.664845916628004488e+03  3.732159001096450993e+03  3.813506983940202190e+03  3.879329368389219781e+03  3.969805602533680940e+03  4.136351805894479185e+03  4.074442644509853835e+03  4.020826991570032988e+03  4.147244643187360452e+03  4.318395648381941101e+03  4.425979336147918730e+03  4.274359226165090149e+03  4.300526412901711410e+03  4.164675803992538931e+03  4.120251193746663375e+03  3.931244394623410699e+03  3.915469204711264865e+03  3.910008709272451597e+03  3.904964451726571497e+03  3.899538605462706528e+03  3.894360261195261046e+03  3.889504712389726137e+03  3.884078468340781455e+03  3.917736759340098615e+03  4.109714853159206541e+03  4.300373116198176831e+03  4.440717458452977553e+03  4.209095001192227755e+03  4.026937950175795322e+03  4.014785752451006374e+03  4.015619069399000182e+03  4.128157033287921877e+03  4.337024134805403264e+03  4.517708129766341699e+03  4.654964697390752917e+03  4.742934937809263829e+03  4.905156436578621651e+03  4.774825088272848916e+03  4.586136539485501089e+03  4.385366234475029160e+03  4.099332863159505905e+03  4.021932008565458545e+03  3.981503403170425372e+03  3.939876643327709189e+03  3.865835374834286995e+03  3.793675092526762455e+03  3.742453318546452465e+03  3.729419375768986811e+03  3.716320116899378263e+03  3.703220954789429925e+03  3.690113247340276757e+03  3.699901594399578244e+03  3.840351113265485310e+03  3.995331350437334095e+03  4.192597222268849691e+03  4.309544525410628012e+03  4.147466249404295013e+03  4.052617650203055746e+03  4.212535325768375515e+03  4.208027539917378817e+03  4.322223339857800056e+03  4.265440501119686814e+03  4.168720614185051090e+03  3.997829112362693195e+03  3.847022468823305189e+03  3.821587904566579709e+03  3.876303044328927172e+03  3.897175237503805420e+03  4.052983642399975452e+03  4.244995138452786705e+03  4.391286062432573999e+03  4.746174913620538973e+03  4.889674763798329877e+03  5.020915530161101742e+03  5.131949643956591899e+03  5.122115675339053269e+03  5.014008772200210842e+03  4.944279506296704312e+03  4.933945280732918945e+03  4.992652370712083211e+03  5.060189895492470896e+03  4.974472462840083608e+03  4.826097492632091416e+03  4.754427136777507258e+03
2.331447907933538772e+03  2.332347086097949614e+03  2.505938144339337668e+03  2.664675989634845337e+03  2.754774733789851325e+03  2.878315986493527816e+03  2.951830279149095986e+03  3.059191419636691990e+03  3.149238759588021367e+03  3.219712263205001364e+03  3.305928673245168284e+03  3.161854370230030327e+03  3.224489281697452498e+03  3.246247211225641422e+03  3.299611553986507715e+03  3.250810401612509395e+03  3.301729846494957201e+03  3.391057937269965805e+03  3.455786164998969980e+03  3.575086775661693082e+03  3.646154775816181427e+03  3.704672191268231927e+03  3.795497625381620310e+03  3.876433662412092417e+03  3.942339030257186550e+03  4.037267877091510400e+03  4.141728760060016612e+03  4.180064350386702245e+03  4.207487998753900683e+03  4.365062284221260597e+03  4.462107983894686186e+03  4.414691663586866525e+03  4.400047974330991565e+03  4.397634593025488357e+03  4.336797277618305088e+03  4.062200192976069047e+03  3.902067379950187842e+03  3.896944217293083966e+03  3.891490420191551493e+03  3.886439440037341228e+03  3.881013596910026081e+03  3.875834689896872078e+03  3.870979300913079442e+03  3.865553544306260846e+03  3.946351368209487191e+03  4.150885001057366935e+03  4.324972076457890580e+03  4.158188786077371333e+03  3.980176501987686606e+03  3.961004671128519931e+03  3.956374846984236228e+03  4.038859125264821159e+03  4.218678609723692716e+03  4.289119251163502668e+03  4.433851349858648973e+03  4.583489400715961892e+03  4.745193753753925193e+03  4.540747974328785858e+03  4.390278055112282345e+03  4.214794666289421002e+03  4.092495600484889565e+03  4.084217576887215728e+03  4.055005585169040842e+03  4.046398181022536846e+03  4.001904276050770022e+03  3.954441915205966779e+03  3.893720275351724922e+03  3.810263448704551138e+03  3.710890213730823234e+03  3.697795106639899586e+03  3.684695946173294942e+03  3.671588856519056208e+03  3.702726272653672822e+03  3.873919907089855315e+03  3.998898877164320311e+03  4.088853565375289236e+03  4.064591056628570186e+03  3.893553222764211569e+03  4.066437197350157930e+03  4.107205222264837175e+03  4.138285252351483905e+03  4.154104777508066945e+03  4.160137242225189766e+03  3.922351904056390595e+03  3.792659850343053222e+03  3.773580570763564992e+03  3.851459820080023292e+03  3.885383530802291716e+03  4.034405447175285644e+03  4.377746817963188732e+03  4.508138467694240717e+03  4.731179153943143319e+03  5.012268512420849220e+03  5.037026403207445583e+03  5.030983589541531728e+03  4.976991212535204795e+03  4.875850991702366628e+03  4.783056852782867281e+03  4.837467969987446850e+03  4.934538896411939277e+03  5.073068222370001422e+03  5.098462181246083674e+03  4.908644072605396104e+03  4.889469062515195219e+03
2.331447908933538656e+03  2.530728000091931335e+03  2.716851589522564154e+03  2.793399578833291343e+03  2.900727432352842243e+03  2.978898579187414725e+03  3.131438051535036720e+03  3.202399263228134259e+03  3.339130300953640472e+03  3.394817743215507562e+03  3.346403690009687580e+03  3.294758805281742752e+03  3.328956801612354866e+03  3.338356354026579083e+03  3.319082934704763375e+03  3.360389111632156528e+03  3.396619976865151784e+03  3.422760588331391773e+03  3.537857567840367665e+03  3.614844035091414753e+03  3.681628819503049726e+03  3.737569064600619640e+03  3.816553852310824823e+03  3.876617244025655054e+03  3.995836090205972596e+03  4.071885074480845105e+03  4.187432570278869207e+03  4.259610838277649236e+03  4.149040188796658185e+03  4.255977305911135772e+03  4.241907844232259777e+03  4.355513741317176027e+03  4.585208765603857501e+03  4.669406725189900499e+03  4.541508710591925592e+03  4.196241172343135077e+03  3.934393660541055397e+03  3.883541453954417648e+03  3.878419150454358714e+03  3.872989909686883948e+03  3.867914430948627796e+03  3.862488576496740279e+03  3.857309594924390240e+03  3.852453481572624241e+03  3.847543603544891084e+03  4.042103001022840090e+03  4.180359197983594640e+03  4.075836884850580645e+03  3.939466523107266312e+03  3.915967276300867525e+03  3.886305935218967079e+03  3.914061561609446017e+03  4.020650035437993211e+03  4.051095178718427633e+03  4.219699031290640050e+03  4.444196371771588019e+03  4.667079272768929513e+03  4.634363567712670374e+03  4.417079814912048278e+03  4.199073286720605211e+03  4.147649060873569397e+03  4.129776758626670016e+03  4.173592853169306181e+03  4.140140248311045070e+03  4.179013616567043755e+03  4.111583414359323797e+03  4.010086359336406531e+03  3.892896754121922186e+03  3.832810983736025264e+03  3.692357308586718773e+03  3.679270096436773201e+03  3.666170934286961710e+03  3.653064207208467451e+03  3.724683304799452799e+03  3.823284742239040042e+03  3.857450362035150192e+03  3.866868794509477539e+03  3.789388954160629510e+03  3.943608387560719166e+03  4.108441574986263731e+03  3.983971331679932064e+03  4.081504435424326402e+03  4.029558540271832044e+03  3.831624136857154099e+03  3.714407028531141350e+03  3.759453348922258101e+03  3.808145088928584755e+03  3.852160568683461406e+03  4.153432963165380897e+03  4.382354390676277035e+03  4.476097114703408806e+03  4.705126282114806600e+03  5.044422941472831553e+03  4.987368247579983290e+03  4.936908588108160984e+03  4.913003524733568156e+03  4.860082680455660920e+03  4.651995629430488407e+03  4.621197741238963317e+03  4.889816023218397277e+03  5.022891594088950114e+03  5.179478497667664669e+03  5.080021483512178747e+03  4.925665509774993552e+03
2.336078967088255013e+03  2.560293229986215010e+03  2.754798412565750368e+03  2.846627010140784023e+03  3.044888881928904539e+03  3.162161583647638963e+03  3.218717610873487502e+03  3.261149809660847041e+03  3.342637771032839282e+03  3.510962991868499557e+03  3.400475852740418304e+03  3.398506963432764678e+03  3.386766728683144265e+03  3.368238109025984159e+03  3.464010129683196283e+03  3.588227498799731165e+03  3.568665058754059828e+03  3.482339137337294233e+03  3.555235362422236449e+03  3.628075690493932598e+03  3.702709943363300681e+03  3.840003915993391274e+03  3.893558015223989969e+03  3.997762849335929786e+03  4.073745491806659174e+03  4.113321350565252033e+03  4.243493741764477818e+03  4.157132702911018896e+03  4.068190389441852858e+03  4.041427774346725073e+03  4.093381002111744237e+03  4.278733300783890627e+03  4.486425412589525877e+03  4.620659954178607222e+03  4.328431526669763116e+03  4.087296002196900645e+03  3.882929645685038849e+03  3.870442172479994497e+03  3.865016198099642224e+03  3.859894218681699385e+03  3.854493279582867217e+03  3.849389421344199945e+03  3.843963569626464505e+03  3.838784110980240712e+03  3.833929671689147654e+03  3.961917500799107984e+03  4.138040515431347558e+03  4.032373553750492647e+03  3.909772580918415315e+03  3.873619343913371267e+03  3.832262530683654859e+03  3.796018345318705087e+03  3.855767924873572611e+03  3.924131140381939986e+03  4.056973805472486674e+03  4.286959062850436567e+03  4.515688469777188402e+03  4.761177136746287943e+03  4.556621160440287895e+03  4.228397319023913951e+03  4.194152534961114725e+03  4.237147469738334621e+03  4.306458038281003610e+03  4.295102581098541123e+03  4.308380773877242063e+03  4.170667747775833050e+03  4.117319848295770498e+03  4.132318815216006442e+03  3.988681284966148269e+03  3.742632410395884563e+03  3.673844259943544785e+03  3.660745086211099533e+03  3.647645925565687776e+03  3.634539644075738579e+03  3.620941185499701533e+03  3.642816806897893002e+03  3.646616491877847238e+03  3.690694558033024805e+03  3.834862990320955760e+03  3.910155786733826972e+03  3.950560322943851133e+03  3.951441891549049615e+03  3.931651456560100087e+03  3.717326120073482343e+03  3.701733451675941524e+03  3.723957489521383650e+03  3.771783457672176155e+03  3.963355559924252248e+03  4.228317573890606582e+03  4.415265481796929635e+03  4.605105485955583390e+03  4.858370862782403492e+03  5.065540433150325043e+03  5.011019382407273042e+03  4.905934465768576956e+03  4.748699555657832207e+03  4.629248289779612605e+03  4.566884772283405255e+03  4.544623212001371940e+03  4.653777469980534079e+03  4.856135860428354135e+03  5.050581158382693502e+03  5.225787199824664640e+03  5.112948917074992096e+03
2.336078968088254896e+03  2.449780804975157025e+03  2.597527399081081967e+03  2.741779008383067776e+03  2.960480498469459690e+03  3.151743177349851521e+03  3.241982800664871775e+03  3.259023082435570359e+03  3.323210300325668413e+03  3.517680248486702112e+03  3.473757797916237450e+03  3.473427471135838459e+03  3.459465027357368854e+03  3.488026585012786654e+03  3.619576377357338970e+03  3.658764178645314587e+03  3.628342739603762766e+03  3.653686821698650419e+03  3.591606770990671521e+03  3.650965735144024620e+03  3.723642525967764414e+03  3.781976522345279591e+03  3.859694141436783411e+03  3.962463766681277320e+03  4.108209905229081414e+03  4.256698891501362596e+03  4.279272192897994501e+03  4.035034398738399886e+03  3.966804450182181426e+03  3.944565546238100069e+03  4.004235426541929428e+03  4.149948539722048736e+03  4.376315541096520974e+03  4.591203383747049884e+03  4.291851804419716245e+03  4.121225571533572293e+03  3.912211342630878789e+03  3.857418548842648306e+03  3.851917157852140008e+03  3.846491461638720921e+03  3.841369170686240068e+03  3.835956722719183290e+03  3.830864410836080424e+03  3.825438548494557836e+03  3.820260193821985467e+03  3.846561950308502219e+03  4.017559662905674941e+03  4.171323706638922886e+03  3.994879386130408420e+03  3.835404000757042468e+03  3.787771977639589750e+03  3.782346741436209868e+03  3.790798319948427434e+03  3.946588758615682309e+03  4.087013032147478043e+03  4.288289682288832410e+03  4.543228739714968469e+03  4.697538800979422376e+03  4.443575042784059406e+03  4.296063952555201467e+03  4.244252320289214367e+03  4.449273774613718160e+03  4.501251581080309734e+03  4.425699280197585722e+03  4.426450599262447213e+03  4.384931195174152890e+03  4.343221645347638514e+03  4.252968452507037910e+03  4.041593194484788455e+03  3.817630487825619639e+03  3.668365359306527353e+03  3.655319255802533917e+03  3.642220076136249190e+03  3.629120916633205525e+03  3.616014424969675019e+03  3.602915282948783442e+03  3.589562556442879213e+03  3.606365314643136571e+03  3.618752525801192860e+03  3.742868636401280583e+03  3.894590663509264232e+03  3.809466343287701875e+03  3.843684287487012625e+03  3.639546064024003044e+03  3.673845223460276429e+03  3.681501701356339254e+03  3.767807674759279053e+03  3.978409109148766674e+03  4.236544375061706887e+03  4.448070933809500275e+03  4.529616919003698968e+03  4.610798173932555983e+03  4.783764952176870793e+03  4.801618672746824814e+03  4.579487302897849077e+03  4.489372467764097564e+03  4.346308358131114801e+03  4.335366615578303026e+03  4.484797484590389104e+03  4.616012589317054335e+03  4.797872356474224034e+03  4.953761449543242634e+03  5.058038688613039085e+03  5.161019181745075912e+03
2.370717762643901096e+03  2.577042649659611925e+03  2.745885523069836836e+03  2.793719922608797333e+03  2.885806526041830693e+03  3.099330583731221395e+03  3.259899215025141530e+03  3.283391995335463434e+03  3.317685973064296832e+03  3.478247438807668459e+03  3.604306825064754321e+03  3.641825811670556050e+03  3.642476553392545611e+03  3.654208673161013394e+03  3.745264149160504076e+03  3.713169406471587081e+03  3.705243240293139934e+03  3.715414862852830083e+03  3.715847961529443182e+03  3.704087524252917774e+03  3.735957954306337342e+03  3.806096642342096857e+03  3.927098625722936958e+03  4.010228453199399610e+03  4.108214133820403731e+03  4.274967341355174540e+03  4.115658565536476090e+03  3.944168045678427916e+03  3.901594602700911764e+03  3.878778685700415735e+03  3.939078067261032174e+03  4.103607112711692935e+03  4.290698223886234700e+03  4.550873616082775698e+03  4.453986813929937853e+03  4.124982887450479211e+03  3.945370094879256158e+03  3.925093578575947504e+03  3.838820114695983648e+03  3.833392151157428088e+03  3.827967069570910098e+03  3.822844111496049209e+03  3.817396233852683054e+03  3.812339400278041012e+03  3.806913553771505576e+03  3.801732156716516783e+03  3.899861277959879317e+03  4.076954652019699552e+03  4.090188022999916939e+03  3.882128981907970228e+03  3.774670346253881235e+03  3.769247587457672580e+03  3.771541722563672465e+03  3.969660976595723696e+03  4.193765991216564544e+03  4.451371586018689413e+03  4.579358623779156005e+03  4.616253290290001132e+03  4.383843906709646944e+03  4.311861193125952013e+03  4.375627723405053985e+03  4.522662750435047201e+03  4.669826190208705157e+03  4.607847041378473477e+03  4.625071452704167314e+03  4.412281469231648771e+03  4.216871285093304323e+03  4.103225783311590931e+03  4.021703646017180290e+03  3.806810550275225978e+03  3.683327215041210366e+03  3.711767964950694022e+03  3.636079838421808290e+03  3.623695076657791105e+03  3.610595901423285795e+03  3.597489414220944582e+03  3.584390250456519425e+03  3.570956578953679127e+03  3.557774613076964215e+03  3.553931432240663526e+03  3.692381807074213157e+03  3.643971522276981887e+03  3.713063863094850603e+03  3.598221136757458225e+03  3.622763962247109703e+03  3.631144451238928923e+03  3.735947854554052356e+03  3.970334052324376444e+03  4.165875988191949546e+03  4.303916271403948485e+03  4.334210921348580086e+03  4.479479404506444553e+03  4.600081703483678211e+03  4.696464888622332182e+03  4.461146939883278719e+03  4.324843717318931340e+03  4.215323512552953616e+03  4.246355388574035715e+03  4.421274298259874740e+03  4.608922128599768257e+03  4.724643319571458051e+03  4.807143741859290458e+03  4.911525043836114492e+03  5.033284641801910766e+03
2.427957853494233859e+03  2.679185461471642611e+03  2.749492116322023321e+03  2.844738923616064767e+03  3.027513581421850631e+03  3.157722950622750886e+03  3.273674374357714441e+03  3.311217723191694859e+03  3.335958469601594061e+03  3.439436713255176528e+03  3.544416086774073392e+03  3.719915395933754553e+03  3.883740141241166384e+03  3.796085475642323217e+03  3.823826953831502124e+03  3.777828481607679350e+03  3.757225360547784476e+03  3.782317305547802334e+03  3.803508406625407133e+03  3.804383829550264636e+03  3.849920641914709904e+03  3.865270299605592299e+03  3.945561573892753131e+03  4.064812893810691094e+03  4.199982863830193310e+03  4.253766079397836620e+03  3.989538710957754120e+03  3.857098212905688342e+03  3.833456448230882415e+03  3.831507014990111202e+03  3.883845091436967778e+03  4.045357932488417646e+03  4.214430540629474308e+03  4.405946861387721583e+03  4.425956941034459305e+03  4.288068150822184180e+03  4.083780498026879741e+03  3.988687237682579507e+03  3.828004496661476423e+03  3.820292987671527044e+03  3.814867140946167638e+03  3.809441127383367530e+03  3.804319066187602402e+03  3.798861880505185582e+03  3.793814389196671527e+03  3.788388537174332669e+03  3.795277392772000894e+03  3.996736330432656814e+03  4.107898509176311563e+03  3.892388543172403843e+03  3.761586367803355643e+03  3.756148423306337918e+03  3.755633778221789271e+03  3.910328798969899253e+03  4.123513774754960650e+03  4.317255899275056436e+03  4.423960522520354061e+03  4.619040910851767876e+03  4.577498228549198757e+03  4.537048584287942504e+03  4.633870743128260074e+03  4.725498059114452190e+03  4.883153156751087408e+03  4.846622278200710753e+03  4.707263009415489250e+03  4.536653144709412118e+03  4.314813297991731815e+03  4.102497593544650044e+03  3.906651038504066946e+03  3.784318407646043397e+03  3.758761527821335221e+03  3.849533067959581331e+03  3.814139289220963747e+03  3.696604118894471412e+03  3.619524548173866151e+03  3.605699160857469451e+03  3.578964250631889172e+03  3.565865243877005014e+03  3.552506058574198960e+03  3.539221935416225278e+03  3.533833203547564608e+03  3.561100913448929987e+03  3.561874992686309270e+03  3.567701179726282135e+03  3.573409659236091557e+03  3.635629959596879416e+03  3.810162568502320937e+03  3.974979295685899160e+03  4.233806102784579707e+03  4.137874572471453575e+03  4.216344082893717314e+03  4.338699097093931414e+03  4.437859608608372582e+03  4.506948868196921467e+03  4.387189033967291834e+03  4.233556956337439260e+03  4.145933572854451086e+03  4.191150378824019754e+03  4.390109892214096362e+03  4.534565741113501645e+03  4.565235606967627064e+03  4.705057137712405165e+03  4.858147895154415892e+03  4.951793818202111652e+03
2.450137600244315763e+03  2.676140589381814607e+03  2.766434104360123001e+03  2.873367883499876370e+03  3.053595100631441255e+03  3.146496335006685513e+03  3.250780519547928634e+03  3.333802073946900236e+03  3.362341857847644405e+03  3.449808553925875003e+03  3.583810507418721954e+03  3.731743674007486334e+03  3.957440335656441221e+03  3.963487250384795971e+03  3.876154534677585161e+03  3.880534480659607198e+03  3.837480370434793258e+03  3.864363987278261447e+03  3.859839635985903897e+03  3.898638267769619233e+03  3.939377490690964805e+03  3.975712988859305824e+03  4.043439862272914070e+03  4.136435389109493372e+03  4.360774668249793649e+03  4.264507921339042696e+03  4.059710680649647657e+03  3.822177228789259971e+03  3.798060386751212718e+03  3.783386157123528847e+03  3.805528477896110417e+03  3.902493924996078931e+03  4.068322034559503209e+03  4.267873993633458667e+03  4.469222305002967005e+03  4.436953461827516549e+03  4.202601008589977027e+03  3.979980330097836486e+03  3.850627436622091864e+03  3.807193824072198368e+03  3.801767977234574118e+03  3.796342130741941673e+03  3.790916266100739904e+03  3.785794183759177031e+03  3.780325936610682220e+03  3.775289378606815262e+03  3.769861244393172456e+03  3.910821345442974689e+03  3.986786673742225503e+03  3.835554699067511592e+03  3.748475321602406439e+03  3.743049253630693784e+03  3.742572705013117684e+03  3.892483016707410115e+03  4.010580727631560876e+03  4.129613994606595043e+03  4.261395000582325338e+03  4.453435996831608463e+03  4.694454636483857939e+03  4.839282448075136926e+03  4.871974554017040646e+03  5.047183587097037162e+03  4.981192144307025046e+03  4.790621934469852931e+03  4.761992188184729457e+03  4.572934172263584514e+03  4.387711591791770843e+03  4.174442717744141191e+03  3.936086263465784668e+03  3.857458117698810383e+03  3.852720655920205900e+03  3.963146456107420363e+03  3.992006951210564239e+03  3.929775398152473372e+03  3.850402849946883634e+03  3.779727509116136844e+03  3.612838715967384815e+03  3.563910591009598193e+03  3.555478402981370891e+03  3.533880328972170901e+03  3.520699106749010298e+03  3.526341544304814761e+03  3.544721241006441232e+03  3.531560131309323424e+03  3.547890189823015135e+03  3.766701061098825903e+03  3.918729840228656940e+03  4.054255974412312753e+03  4.097705869136368165e+03  4.003161134106694135e+03  4.173178658775457734e+03  4.251267794802190110e+03  4.294235036324536850e+03  4.380565104413433801e+03  4.358710441313189222e+03  4.214836686376273065e+03  4.096730865729480684e+03  4.112156033087577271e+03  4.289408096767802817e+03  4.374836847231373213e+03  4.541576550606875571e+03  4.684401720419953563e+03  4.751749271820143804e+03  4.698993618737068573e+03
2.511783678272247926e+03  2.745910550035159758e+03  2.809569263893053630e+03  3.049156828773145207e+03  3.249295827122719857e+03  3.237105525265122196e+03  3.300289093226684599e+03  3.395290870119793453e+03  3.485657062380857496e+03  3.553602112725129700e+03  3.673095069377949130e+03  3.835316912983498696e+03  3.898217845735868195e+03  3.890358629538320201e+03  3.975112404722708561e+03  3.966126962442768672e+03  3.991656613165508588e+03  4.004863337674457398e+03  4.016476788034588935e+03  3.979434841356353900e+03  4.017646112485478625e+03  4.024463732796527438e+03  4.073004509923073329e+03  4.213767367834501783e+03  4.301484638626498054e+03  4.128567638767715835e+03  3.901613175040694841e+03  3.774256938894880932e+03  3.762124789162607158e+03  3.743319162310855972e+03  3.762074431675162941e+03  3.806883658453703902e+03  3.949319108231150494e+03  4.140849401044833030e+03  4.283380273458677038e+03  4.331729986194856792e+03  4.126085096007568609e+03  4.004250967017906987e+03  3.825057774174038514e+03  3.794097948823667593e+03  3.788668813526106533e+03  3.783242967025880262e+03  3.777817120523627182e+03  3.772390291194413749e+03  3.767269370021979739e+03  3.761806378295768809e+03  3.756764924172913197e+03  3.846536239234315872e+03  3.829880744610302827e+03  3.831432439723963398e+03  3.735376396270090481e+03  3.729950092155724178e+03  3.729410976362457404e+03  3.850963940899928275e+03  3.964659566388964777e+03  4.093393777428749672e+03  4.243686554464429719e+03  4.485250681908469232e+03  4.702296981822516500e+03  4.681692057993779599e+03  4.753602507505942413e+03  4.807076118717541249e+03  4.687804740407792451e+03  4.596514915227674464e+03  4.452455337772720668e+03  4.345468439839327402e+03  4.256277780398342657e+03  4.094774564049837863e+03  3.970851813427024808e+03  3.913018438552581301e+03  4.005180821483196723e+03  4.032395082470055513e+03  4.152932755969672144e+03  4.134047151241801657e+03  3.989328398009494322e+03  3.863222886740800277e+03  3.820165699156154460e+03  3.684867450109617494e+03  3.592132306476488338e+03  3.555241595113220683e+03  3.526375019338791390e+03  3.502659704033455455e+03  3.531685515070736983e+03  3.485405818162168089e+03  3.496675218414549818e+03  3.756419471197022176e+03  3.935982167582467355e+03  3.940075549357577984e+03  3.911119989617903229e+03  3.918846209775383613e+03  4.108944214376741002e+03  4.177948167854819076e+03  4.228685565949126612e+03  4.432400676995983304e+03  4.386819630884234357e+03  4.226846144105640633e+03  4.100107993806792365e+03  4.053071233718638723e+03  4.145838226230761393e+03  4.291011434170146458e+03  4.424600029063786678e+03  4.595678631180808225e+03  4.596407507447154785e+03  4.438108274034366332e+03
2.689159835674156966e+03  2.583500496897740049e+03  2.736642440837397316e+03  2.917574152642621357e+03  3.097798077721156460e+03  3.310988903513026344e+03  3.352779359493528773e+03  3.394129300150831568e+03  3.536695729897522142e+03  3.640689825719532564e+03  3.765116018521177466e+03  3.736651606374471157e+03  3.760276545156966222e+03  3.774201554075093100e+03  3.943986949968619683e+03  3.983038241522468979e+03  4.065636128162617752e+03  4.123406305639820857e+03  4.217000861074595377e+03  4.173511457366419563e+03  4.083073026621240842e+03  4.077530525933169429e+03  4.111399151852422619e+03  4.301411379897338520e+03  4.372168052188225374e+03  4.175927519909197144e+03  3.865971840005474405e+03  3.724966286812184990e+03  3.719988129755056434e+03  3.689628887355554070e+03  3.674599065069518019e+03  3.722621815427871752e+03  3.800131815371812991e+03  3.990295127537282042e+03  4.194878635958023551e+03  4.313344630183855770e+03  4.069278038212216870e+03  3.920690994383780435e+03  3.799701948637107762e+03  3.786587848601307542e+03  3.775571857343647935e+03  3.770143803320274401e+03  3.764717956817059985e+03  3.759292110313219382e+03  3.753865539879423977e+03  3.748744230005628197e+03  3.743275109524678555e+03  3.742576634989094600e+03  3.733127101678698637e+03  3.754034782788792199e+03  3.722276516233192524e+03  3.716850924481329002e+03  3.743146272984529332e+03  3.931324245719836654e+03  4.120932326533933519e+03  4.235920951116902870e+03  4.369667886595709206e+03  4.604035160020313015e+03  4.627706993168761983e+03  4.462720874620536051e+03  4.584759360981252030e+03  4.733301917706474342e+03  4.505853175435675439e+03  4.395568420859473918e+03  4.341474394316510370e+03  4.275142029484506565e+03  4.153925849909828685e+03  4.072644963051172908e+03  4.013297363617436531e+03  4.003630271857216940e+03  4.132904014363667557e+03  4.215323449326016089e+03  4.297597702010816647e+03  4.264381206656531504e+03  4.118029274102453201e+03  4.088804294849492180e+03  3.894766417588416971e+03  3.714629234362323587e+03  3.706891000226923552e+03  3.768333374223857390e+03  3.620492740025077637e+03  3.523381617119953262e+03  3.502659703033455571e+03  3.495964209776553162e+03  3.441736338821633581e+03  3.618151837911245366e+03  3.735518815975374309e+03  3.727280084693696608e+03  3.741782294759256274e+03  3.858838969699585050e+03  4.058079603920762111e+03  4.141777203303242459e+03  4.280057101054683699e+03  4.398637797579715880e+03  4.375665392368612629e+03  4.204499241020330373e+03  4.115993214472548971e+03  3.996620254028033742e+03  4.077538106351130864e+03  4.162493334897474597e+03  4.316447315334816267e+03  4.455170711471497270e+03  4.433050055945385793e+03  4.313934240902462989e+03
2.759471828735610870e+03  2.683981074233092841e+03  2.716579049361893340e+03  2.871168132877877269e+03  3.118737028706289493e+03  3.196514319633463401e+03  3.302333366901278168e+03  3.324855782147503305e+03  3.410357003602673103e+03  3.448932776369516432e+03  3.494616942700196887e+03  3.555603888082309368e+03  3.644703567206293428e+03  3.789086265464798544e+03  3.810785525590882116e+03  3.848355399378258880e+03  3.901349813652984267e+03  3.952622218040961343e+03  4.008893090663683324e+03  4.225703985250429469e+03  4.269036458635866438e+03  4.174351325709828416e+03  4.206874987364011758e+03  4.380681834902550690e+03  4.270759655982153163e+03  4.027720841823806950e+03  3.812421063327351021e+03  3.685978338009988420e+03  3.655322500990073422e+03  3.601316147106680091e+03  3.574607278614465486e+03  3.637965078464696944e+03  3.705872708480801066e+03  3.871603739796080390e+03  4.033380523863779217e+03  4.163984335218797241e+03  3.909887156459230482e+03  3.843780954023129198e+03  3.794344784430262735e+03  3.781161729290627591e+03  3.768062869737851997e+03  3.757044573891671462e+03  3.751618793110414117e+03  3.746192946608079637e+03  3.740767100110168030e+03  3.735340942598179481e+03  3.730219115021164725e+03  3.724763835737142927e+03  3.719713468091224058e+03  3.714603420730406015e+03  3.709177597279644033e+03  3.703751762924759532e+03  3.706760578095218989e+03  3.928150772756397146e+03  4.144838403167022079e+03  4.344095822649293950e+03  4.449741033005798272e+03  4.482170698206688940e+03  4.378529356214395193e+03  4.366689907553359262e+03  4.552619474698120939e+03  4.680742481672698887e+03  4.495410334012691237e+03  4.415818535522220373e+03  4.333212130512719341e+03  4.282989524829571565e+03  4.196033430866064919e+03  4.102128364423992934e+03  4.040427681817393477e+03  4.094091237766236191e+03  4.234330427856740243e+03  4.393471398289933859e+03  4.442408166985028402e+03  4.347893982030795087e+03  4.257026494179913243e+03  4.064619504524981039e+03  3.887134525898858101e+03  3.779090375484633569e+03  3.903483186273148476e+03  3.843044624108923017e+03  3.699840109333872533e+03  3.525007926552003937e+03  3.470582790153976930e+03  3.463956818895421293e+03  3.408734369825180693e+03  3.473762902652737921e+03  3.523510056152392281e+03  3.579686853046169290e+03  3.814006618628181513e+03  3.929214211431933109e+03  4.029365674519538970e+03  4.187924751458070205e+03  4.364861359809819078e+03  4.450399540892805817e+03  4.339431697415957387e+03  4.188030557404674255e+03  4.092635211474497282e+03  3.934879713270181128e+03  4.011819308375292621e+03  4.086868050046951794e+03  4.207071037184694433e+03  4.313968874000631331e+03  4.227627047542735454e+03  4.189507773130812893e+03
2.898705116603769056e+03  2.813384566894581440e+03  2.689853992496173305e+03  2.807618611320282525e+03  2.938019694229425113e+03  3.010755138103683748e+03  3.197723947927911922e+03  3.221806635486907453e+03  3.273157630850778787e+03  3.272924092942137577e+03  3.394421100439268685e+03  3.601183620556530059e+03  3.799715736149330041e+03  3.743164838694850914e+03  3.710276493679340547e+03  3.792416912555178442e+03  3.911869576792808857e+03  3.951834646701307520e+03  4.020537359675002790e+03  4.106869730119275118e+03  4.234459419438780969e+03  4.420503892561563589e+03  4.469788679763561049e+03  4.416296790053806035e+03  4.165606209699059946e+03  3.957363520134959344e+03  3.833813016231123584e+03  3.677195727326154611e+03  3.627149065027678262e+03  3.552791889036994689e+03  3.547826415588938289e+03  3.571588106654491185e+03  3.645636351968087183e+03  3.784482092101899980e+03  3.921856534278695108e+03  4.036186147992857514e+03  3.945173267215829128e+03  3.808045124308822778e+03  3.804765142027584716e+03  3.786461909893018856e+03  3.762663293154434996e+03  3.749537844334111014e+03  3.738519344487330272e+03  3.733093782901545637e+03  3.727667936397388985e+03  3.722242089898098584e+03  3.716815250359963557e+03  3.711694077331004792e+03  3.706249886160228925e+03  3.701191144448908744e+03  3.696078432788149712e+03  3.690652568475103635e+03  3.733908482048108908e+03  3.959260630545154527e+03  4.172900051192107640e+03  4.140733850744373740e+03  4.204747449113007860e+03  4.245841015829516436e+03  4.238926351035055632e+03  4.355012850087357947e+03  4.644705503795194090e+03  4.750822250208470905e+03  4.660981491544965138e+03  4.664833306649508813e+03  4.563516028551658565e+03  4.394477780088178406e+03  4.289310186627614712e+03  4.196118345711351139e+03  4.189999577484566544e+03  4.236929864965412889e+03  4.368497145693501807e+03  4.517121658104288144e+03  4.607793858486807039e+03  4.382645303005255300e+03  4.218285597981640421e+03  4.071016281038890156e+03  3.954806914888152278e+03  3.962864902119900762e+03  4.040499696712600780e+03  3.889356430277575782e+03  3.690805400192846719e+03  3.527526124126222840e+03  3.485832243636022213e+03  3.390477854585323257e+03  3.366802394541425656e+03  3.430346600859718819e+03  3.434774710572667573e+03  3.519337124037739159e+03  3.674607729800322431e+03  3.870900747418709216e+03  3.925533021087238012e+03  4.042999397647221940e+03  4.117162325977866203e+03  4.286851937524525965e+03  4.339873143123461887e+03  4.183181288253234015e+03  4.072707391204665782e+03  3.910539038682353294e+03  3.899464185822070704e+03  4.026011779262730670e+03  4.127737532372546411e+03  4.200240425891550331e+03  4.105392793206332499e+03  4.079198138781762736e+03
2.980205320592235694e+03  2.829044557571294263e+03  2.790855139970029086e+03  2.804169119985466750e+03  2.804169120985466634e+03  2.852187431884033231e+03  2.963063765090348625e+03  3.140682257638153715e+03  3.157610589877534494e+03  3.217141147402752722e+03  3.306495680679598536e+03  3.373638378243922944e+03  3.466434799784827646e+03  3.580283888011731960e+03  3.696490761828683389e+03  3.829981158830177264e+03  3.989029820112784364e+03  4.124509207107898874e+03  4.063058982740914871e+03  4.208427601645254981e+03  4.269760680820909329e+03  4.390920228885916913e+03  4.673219323964293835e+03  4.617854340415180559e+03  4.282802038834367522e+03  4.017504271033637451e+03  3.825849704386917438e+03  3.683129790017533651e+03  3.597680551651493715e+03  3.506725820176183333e+03  3.485359964217769175e+03  3.492087046719992031e+03  3.617113436162046582e+03  3.679441299430664003e+03  3.865202482110567416e+03  4.082018265082429934e+03  4.129979486571326561e+03  3.937319464060584323e+03  3.907748127306892911e+03  3.932014758467138563e+03  3.812930982354522712e+03  3.744107770377800989e+03  3.731012822562675410e+03  3.719994086490492919e+03  3.714568772688000081e+03  3.709142926188453657e+03  3.703717079683766315e+03  3.698291915389173937e+03  3.693169105769416547e+03  3.687720374138539682e+03  3.682665043401208550e+03  3.677553671569462949e+03  3.775074272748611747e+03  3.920554942559688243e+03  3.990096066480253285e+03  3.969404123341528702e+03  4.008835459975159665e+03  4.126423656477721124e+03  4.191618654720174163e+03  4.320620464784782598e+03  4.622976200239469108e+03  4.855575050493889648e+03  4.857965133390313895e+03  4.892937700390263672e+03  4.686442098666417223e+03  4.583893429664974065e+03  4.481564002903864093e+03  4.436300695213825747e+03  4.417702163180293610e+03  4.475623272979082685e+03  4.540315004463621335e+03  4.685078008110545852e+03  4.674429353844261641e+03  4.437533664601778582e+03  4.260198895771392017e+03  4.186863936026041301e+03  4.115525764105330381e+03  4.142180959170290407e+03  3.919496755832085000e+03  3.743324634793887526e+03  3.586414099803657791e+03  3.530748007737508942e+03  3.486161658590436218e+03  3.430904571566837149e+03  3.358850573449313288e+03  3.425693696026246926e+03  3.425135744819134288e+03  3.398722774512658816e+03  3.498628496150673072e+03  3.682140633322804661e+03  3.792218785584077978e+03  3.895998165414050163e+03  3.988175799498197648e+03  4.155842770404955445e+03  4.260622289860926685e+03  4.140623492785735834e+03  4.039624491911199129e+03  3.924359020723957656e+03  3.789220047683510074e+03  3.946079991879103090e+03  4.081207531838117120e+03  4.100518124551821529e+03  4.004739227186361859e+03  4.043896917551496699e+03
2.957812991813633744e+03  2.927508937373092522e+03  2.875459242118240127e+03  2.954829108609972991e+03  2.994795348531847594e+03  2.954785294078163133e+03  2.899284906447707726e+03  2.931907618212474517e+03  2.962779100035487318e+03  3.047376269453657187e+03  3.109701152659777108e+03  3.204501109719196393e+03  3.364907033542990575e+03  3.534636721828835107e+03  3.735530705793425568e+03  3.930050414503983575e+03  4.166601003648615915e+03  4.298661693053207273e+03  4.224773813705198336e+03  4.370577029551904161e+03  4.476753233575273953e+03  4.510765722575596556e+03  4.581438261555334066e+03  4.749147726407685695e+03  4.299636311879301502e+03  4.026632818869211405e+03  3.805920521432431087e+03  3.650027126798288919e+03  3.555132239344613481e+03  3.458737682455955110e+03  3.390335836023036791e+03  3.369328594585243991e+03  3.474759261974150377e+03  3.557272797610723046e+03  3.763467436672943222e+03  3.955304550487332563e+03  4.138607389766405504e+03  4.028136150470212215e+03  3.986727429238679179e+03  4.002887693945790033e+03  3.886756237606523428e+03  3.778470103046579425e+03  3.726354505643089851e+03  3.712405041938762679e+03  3.701469482898800379e+03  3.696043762479594989e+03  3.690617915981070837e+03  3.685192069478450321e+03  3.679767911588438437e+03  3.674644046103649998e+03  3.669205488535605127e+03  3.664138619258185827e+03  3.745442672764619147e+03  3.852743656501641908e+03  3.847289042035740295e+03  3.889294287029183579e+03  3.998646525493854824e+03  4.062517979951112466e+03  4.192036570988076164e+03  4.399562332615887499e+03  4.573949326889319309e+03  4.832406330016052380e+03  5.029557147076110596e+03  5.002870377842709786e+03  4.860610391647931465e+03  4.776183557912607284e+03  4.708070644037060447e+03  4.695710322595616162e+03  4.663574746011943716e+03  4.692140564057048323e+03  4.770700368923775386e+03  4.833070981920724989e+03  4.672283438713014220e+03  4.524112507199886750e+03  4.351429820378063596e+03  4.286263074795846478e+03  4.235161466832591032e+03  4.121928218808386191e+03  3.883936709877641078e+03  3.695749636226171333e+03  3.559022100749899892e+03  3.543691214897243754e+03  3.488537872734742450e+03  3.413700644844363069e+03  3.359844512914502957e+03  3.358850572449313404e+03  3.417814835178808607e+03  3.402311666773312027e+03  3.394396638003451244e+03  3.536920199205578228e+03  3.671677072982308346e+03  3.706643698083765230e+03  3.885751450907750950e+03  4.103711341928376896e+03  4.241683610959256839e+03  4.122546351860479263e+03  4.001462044142075229e+03  3.851022487053034638e+03  3.758727403272287120e+03  3.904045668063035464e+03  4.015828829092050455e+03  3.985931421951850098e+03  3.960083913368576759e+03  4.098152140900894665e+03
3.047485959732531228e+03  2.969746228020011131e+03  2.989301857072562598e+03  3.114294490174625025e+03  3.194374083298591358e+03  3.173213071894489076e+03  3.081611274432102164e+03  3.053377064286328277e+03  3.045114244436299941e+03  3.029012166983123734e+03  3.059456844726539202e+03  3.210080268518810954e+03  3.445857717520939332e+03  3.649489642424899102e+03  3.773603665902171542e+03  3.967232171152563751e+03  4.222439761133788124e+03  4.440692622908594785e+03  4.398860548371651021e+03  4.372743597409699760e+03  4.370432310459948894e+03  4.417485781975029568e+03  4.610024614314047540e+03  4.621412585564175060e+03  4.239007062699344715e+03  3.997666371638450073e+03  3.813499928370095404e+03  3.646994261558773360e+03  3.497475606045343284e+03  3.386427193893330696e+03  3.336895268145352475e+03  3.288206045695322700e+03  3.363390556222108899e+03  3.508658056094735457e+03  3.626774817379387514e+03  3.779492108273668237e+03  3.875492704722795679e+03  3.937926434433460599e+03  4.093429416288837729e+03  4.012343881539732138e+03  4.046096996395193401e+03  3.919577112859290992e+03  3.788883459514581773e+03  3.743071509692588734e+03  3.752062802282298435e+03  3.682921905232562494e+03  3.677518752197035610e+03  3.672092905768013679e+03  3.666667059268817411e+03  3.661241855946993383e+03  3.656119157165546312e+03  3.650687159335388969e+03  3.645775918820238530e+03  3.742575869551088090e+03  3.784609423700039770e+03  3.862820557598693995e+03  3.977426749655352978e+03  4.105540755061515483e+03  4.270859848618278193e+03  4.444273381200541735e+03  4.684100599025585325e+03  4.917590486839221740e+03  5.108232088900527742e+03  5.202994504471598702e+03  5.093398203942213513e+03  4.981681085611367052e+03  4.924440047550982854e+03  4.944064426503206960e+03  4.892271014478573306e+03  4.577015987377873898e+03  4.599243243275147506e+03  4.569574034485422089e+03  4.484833320630395974e+03  4.298585715875695314e+03  4.140477026191633740e+03  4.162741640401255609e+03  4.041358877239674257e+03  3.928625453928387742e+03  3.877216539093317806e+03  3.660803264138954546e+03  3.568796565602801365e+03  3.569382924307634767e+03  3.659816947378800251e+03  3.516521416400837097e+03  3.385060614863567025e+03  3.311891564342884067e+03  3.338286887163503252e+03  3.371162459033600499e+03  3.345238805042493368e+03  3.390755007265081986e+03  3.544034047400301461e+03  3.743760641631542967e+03  3.889487134721326584e+03  4.058821892488414051e+03  4.138943352950118424e+03  4.069034670008666581e+03  3.928748682848969111e+03  3.841832428633475502e+03  3.683878530875108936e+03  3.867117607307654453e+03  3.925436998331689210e+03  3.865041455626145762e+03  3.993858214227043391e+03  4.108117297097194751e+03
3.115071514683544137e+03  3.080760822132278463e+03  3.101099639452951124e+03  3.270625670312308102e+03  3.346407695908606456e+03  3.323672298956716986e+03  3.251923352615281146e+03  3.198907024679760980e+03  3.205915103461804392e+03  3.188295663413062812e+03  3.131748790271684811e+03  3.314943400470689085e+03  3.519987283499565365e+03  3.705640793403854332e+03  3.882467851112416156e+03  3.904517779117698865e+03  4.004304135504825354e+03  4.141495834161674793e+03  4.041664188770647797e+03  4.032262431318404651e+03  4.144907866528945306e+03  4.332312774773621641e+03  4.389366826077005499e+03  4.481442590031095278e+03  4.428217307108729074e+03  4.124247748746844991e+03  3.933442099658715051e+03  3.692114893100821519e+03  3.526849686162392572e+03  3.374702573498985657e+03  3.300764508028608816e+03  3.262559412364934360e+03  3.271052043915610739e+03  3.369158897805797551e+03  3.473150045527359907e+03  3.638392168652939290e+03  3.681197705895822310e+03  3.772552256346630202e+03  3.937713882900336557e+03  4.117159440980037289e+03  4.186037841828891032e+03  3.952269345945264376e+03  3.843945993736728724e+03  3.826648795299181074e+03  3.903516101644554510e+03  3.780878959186476095e+03  3.664425391639829286e+03  3.658993742056511564e+03  3.653567895561106980e+03  3.648142049073482667e+03  3.642716981151113941e+03  3.637594052253858081e+03  3.632157336592011234e+03  3.701449719191389704e+03  3.783928545875141481e+03  3.920936494488082189e+03  4.065696314325465664e+03  4.211944243169080437e+03  4.359659614077502738e+03  4.497187862872144251e+03  4.711089448929515129e+03  4.949803703233773376e+03  5.130599521324382295e+03  5.211162145928971768e+03  5.301194066383400241e+03  5.247632820191812243e+03  5.199902191537821636e+03  5.146421923395385420e+03  4.752362455118147409e+03  4.371067567303518445e+03  4.286815813585152682e+03  4.273093239936453756e+03  4.297972731871980614e+03  4.186658873622112878e+03  4.073521815900209276e+03  3.982824545443449551e+03  3.889671355376256088e+03  3.806417770105681484e+03  3.732242345358492457e+03  3.633916447432201494e+03  3.600103746539034546e+03  3.637199668968751666e+03  3.718201422635024301e+03  3.568893519672820275e+03  3.448413411335260662e+03  3.411459893218379875e+03  3.311891563342884183e+03  3.220405426108032771e+03  3.299785563745045238e+03  3.304391374906247620e+03  3.454199492726918379e+03  3.704864353957745607e+03  3.844578550639186687e+03  4.009615218488318078e+03  4.084725317928174263e+03  3.953672635654752412e+03  3.855077053253237864e+03  3.760240030249643496e+03  3.638873256885106457e+03  3.742852540408080131e+03  3.814829452977135134e+03  3.918700375856772553e+03  4.131059051454572000e+03  4.234570777175408693e+03
3.285062751871935689e+03  3.242335135837862254e+03  3.190216220062041430e+03  3.371991507860725960e+03  3.428963065062757323e+03  3.470703539983001519e+03  3.400363797309185429e+03  3.316389403576351469e+03  3.376997078591730769e+03  3.339722214212530162e+03  3.209675393287907809e+03  3.265569748999525928e+03  3.390054973899151264e+03  3.599476131438905668e+03  3.599672478938243330e+03  3.641208002486420355e+03  3.681651585788959892e+03  3.725710775242548607e+03  3.839014280068395237e+03  3.914158205338654170e+03  4.010361755181958415e+03  4.171543261895749310e+03  4.203283418107128455e+03  4.236138285454240759e+03  4.189335384960819283e+03  4.162314266550158209e+03  3.951374811872752616e+03  3.742308560150872381e+03  3.624904792144080147e+03  3.500134540063264467e+03  3.331185506201811222e+03  3.223582151029823763e+03  3.213263186304040573e+03  3.286046897497106329e+03  3.379429746568896007e+03  3.478960977926314172e+03  3.570441779962748114e+03  3.663667032326106437e+03  3.820503502304224639e+03  3.997340280040138168e+03  4.153343347458579956e+03  3.981182407572895045e+03  3.880041871026566696e+03  3.914449752557085503e+03  4.035191460382297919e+03  3.881893499782044728e+03  3.655869872583425149e+03  3.645894577822856263e+03  3.640468731850680342e+03  3.635042885347160336e+03  3.629617038850680729e+03  3.624192847611530851e+03  3.619068930318439016e+03  3.700797869937769974e+03  3.906966661434140860e+03  4.024090867476889343e+03  4.200139071304656682e+03  4.346766758759310505e+03  4.500619287347642967e+03  4.639488523374066062e+03  4.824673555597658378e+03  5.004512728014155073e+03  5.034478347344261238e+03  5.080672538154273752e+03  5.196209999078911096e+03  5.075782378160929511e+03  5.320373346905686049e+03  5.001764700830786751e+03  4.751881755279791832e+03  4.322041607511347138e+03  4.199410320670431247e+03  4.138227441375610397e+03  4.082103757021929141e+03  4.064293442653331113e+03  3.968408196870669599e+03  3.905292821199464015e+03  3.856943049052245442e+03  3.816628541300729921e+03  3.763207924959440788e+03  3.690970974207583367e+03  3.640282199590313667e+03  3.738612748456780992e+03  3.592310165313263042e+03  3.517822166129765719e+03  3.548981763917171065e+03  3.614749808961118561e+03  3.469767652444219948e+03  3.288257852773555896e+03  3.193404241732579521e+03  3.234261942105438720e+03  3.307763690444414806e+03  3.524703484928709713e+03  3.763849825906120714e+03  3.985434180839580677e+03  3.961790513847237435e+03  3.940882208828454623e+03  3.741508415232376137e+03  3.619360547446654891e+03  3.586436936880684698e+03  3.849798154846570469e+03  3.916197637684914753e+03  4.017486785593279819e+03  4.127938020844451785e+03  4.183719223591439913e+03
3.466474336974320067e+03  3.422955073938536316e+03  3.321488523770321990e+03  3.393963759799546551e+03  3.463613538169181084e+03  3.538318370660654637e+03  3.525255263602433843e+03  3.465151623526418916e+03  3.530517044037725555e+03  3.407886912047413716e+03  3.434556011324817518e+03  3.345571834721646155e+03  3.358389683393112136e+03  3.411787350589016569e+03  3.463648774885799412e+03  3.530730282474909473e+03  3.589876891658909699e+03  3.640979334620270038e+03  3.769142288151584580e+03  3.836031798349670680e+03  3.944196827903728263e+03  4.009025717702905240e+03  4.009668237097454494e+03  3.995365206316792410e+03  3.906539250215797438e+03  3.904243172183144452e+03  3.935749204379933417e+03  3.775763767198954156e+03  3.756883607815874257e+03  3.677050040429178807e+03  3.492026219047952964e+03  3.239384829557949615e+03  3.200164562263772041e+03  3.194714612397858673e+03  3.250703935562645711e+03  3.375392886169566736e+03  3.473834282075116334e+03  3.610574416406123873e+03  3.742136428149098720e+03  3.895925152378265011e+03  4.000739267147291685e+03  4.099380879102186555e+03  3.990984558912554348e+03  4.048592491806525231e+03  4.111636666517371850e+03  3.927772687840215895e+03  3.746455991156337404e+03  3.632781808040507713e+03  3.627369568145890753e+03  3.621943721641368938e+03  3.616517875141406876e+03  3.611092028644134189e+03  3.605667290285037780e+03  3.659392242930285192e+03  3.863869254669560632e+03  4.038559067627234526e+03  4.152590639320987975e+03  4.292108145997632164e+03  4.386635960858768158e+03  4.581930494917603028e+03  4.767721335999429357e+03  4.966482940705514011e+03  4.937436003544010418e+03  5.006696319555001537e+03  4.971850375011724282e+03  4.786521002346327805e+03  5.157230314588030524e+03  5.059584585541731940e+03  4.699020115298966630e+03  4.437829243697204220e+03  4.194239105476006443e+03  4.110604751894165020e+03  4.080753232370289879e+03  4.015346470284988300e+03  3.961763237806473171e+03  3.875906705937564766e+03  3.864170792274648193e+03  3.853611533896744277e+03  3.831078089026307225e+03  3.821957949130206543e+03  3.804249254090819250e+03  3.711626082208827484e+03  3.603382158478710608e+03  3.627141592679619407e+03  3.716289496198907273e+03  3.771802254259368056e+03  3.602136707421356732e+03  3.483898521455858827e+03  3.288664913507190249e+03  3.174236757290095738e+03  3.246975562954741690e+03  3.443828660016083177e+03  3.707361790689115423e+03  3.926894446341178991e+03  3.844834465016285776e+03  3.720723144437803057e+03  3.676847105470588758e+03  3.490313567272188266e+03  3.620160646407108288e+03  3.833239983348237274e+03  3.864655095486892606e+03  3.902604033887895639e+03  3.993497428520111953e+03  4.104749189331731941e+03
3.499025801557641898e+03  3.470361840187156758e+03  3.446773288638386930e+03  3.429399679266733528e+03  3.480150395489742550e+03  3.599834153669907664e+03  3.632390644129489374e+03  3.559924032569656447e+03  3.543704804667784174e+03  3.558150616559121772e+03  3.594561588425064201e+03  3.579563625120181314e+03  3.564568373381763649e+03  3.529978530252972178e+03  3.516867752094828575e+03  3.579276996552352102e+03  3.607276059075869398e+03  3.687752381623000929e+03  3.801825789338688537e+03  4.002644456227791125e+03  4.008850951596030427e+03  3.885938748447624675e+03  3.800936337423188434e+03  3.796008350787576092e+03  3.828785108783862142e+03  3.842956256096352718e+03  3.912112842494232609e+03  3.940883380240849874e+03  3.906829631826265086e+03  3.706354183300094064e+03  3.576294139624365471e+03  3.406295583185324631e+03  3.187025609471246298e+03  3.181639547265758665e+03  3.176214432207996197e+03  3.268252475213013895e+03  3.399686081082180863e+03  3.513691550546496273e+03  3.683644347425564774e+03  3.835617430650004280e+03  3.996346956872963801e+03  4.238374842241125407e+03  4.062156387784236358e+03  3.936582746176113233e+03  3.918440705266799341e+03  3.887888743937980053e+03  3.870041612768412961e+03  3.694166451053537003e+03  3.614270399698670190e+03  3.608844557928954600e+03  3.603418711429998439e+03  3.597992864930660744e+03  3.592567018426784216e+03  3.597493420952393535e+03  3.796788278978435756e+03  3.915407996997826558e+03  3.968163722590381440e+03  4.071712923200262139e+03  4.214629422985409292e+03  4.444629904978340164e+03  4.619061399038707350e+03  4.876031377517148940e+03  4.827304618306066914e+03  4.865800497438481216e+03  4.770749630851961228e+03  4.589857050658910339e+03  4.561053122413426536e+03  4.899441450287147745e+03  4.849022548407261638e+03  4.504209863541099367e+03  4.213967131338261424e+03  4.091826325009224092e+03  4.054487431826869397e+03  4.009474653268362999e+03  3.964752159290610962e+03  3.915980328651479795e+03  3.901813626982770074e+03  3.901947846605157338e+03  4.009034695631410159e+03  4.049928352607070337e+03  3.887341492988292885e+03  3.700956903489107390e+03  3.698474734499960505e+03  3.783108809067594848e+03  3.836118279664602596e+03  3.877288990110086615e+03  3.775353813677676953e+03  3.596747855702644756e+03  3.429056067573227210e+03  3.208873337271914352e+03  3.174236756290095855e+03  3.354042222504887377e+03  3.633646974779264838e+03  3.840917952136199347e+03  3.692309169143260078e+03  3.695171764443599386e+03  3.525887153289389971e+03  3.471581293479566739e+03  3.617385894193262629e+03  3.736828269120395817e+03  3.863837420837356603e+03  3.975980182471667831e+03  4.100851324162668789e+03  4.026977631194849891e+03
3.444807582217059007e+03  3.555740149468909294e+03  3.581519048989708153e+03  3.523966359182698397e+03  3.581913965786855897e+03  3.605856931065294702e+03  3.672604801507721277e+03  3.626676510267171125e+03  3.612577095811728668e+03  3.630213810675830700e+03  3.622835416293557500e+03  3.741889208800203505e+03  3.750223409553977035e+03  3.753379884455338015e+03  3.752723424014015563e+03  3.746234898649983279e+03  3.782379758042055073e+03  3.836580037419657856e+03  3.884143061186579871e+03  4.073249419177408072e+03  3.836119767452710221e+03  3.711046344397862413e+03  3.674407304124134953e+03  3.717105913710515779e+03  3.765165008805941852e+03  3.806529994723165601e+03  3.904673492662535864e+03  3.788629349820439074e+03  3.780942141280399483e+03  3.768032976574334043e+03  3.697333730166142686e+03  3.515976226895219042e+03  3.253735773501308813e+03  3.168540375996988587e+03  3.163114536300355212e+03  3.167624657604819731e+03  3.337718229664334558e+03  3.504576799856246907e+03  3.687753594327868541e+03  3.810694453432930914e+03  4.022079312327547086e+03  4.217503309310085569e+03  4.007373785829572626e+03  3.913950917132950508e+03  3.862293576932273936e+03  3.817956238834925443e+03  3.722653111961893956e+03  3.675538583708188980e+03  3.600920469188459720e+03  3.595745392477696441e+03  3.590319547720863739e+03  3.584893701220643834e+03  3.579467854730072304e+03  3.574126447140989058e+03  3.723661120699443472e+03  3.777683572438384999e+03  3.860583502149221204e+03  3.962458765891813982e+03  4.092791684077547416e+03  4.266277085173018349e+03  4.452837960862666478e+03  4.633911718117341479e+03  4.669456171272664506e+03  4.831054537565940336e+03  4.704782733136935349e+03  4.379240429080487957e+03  4.232618593694197443e+03  4.409411175162229483e+03  4.687344515261976085e+03  4.450108994552474542e+03  4.266359095989108937e+03  4.146614903367018997e+03  4.034171834056299303e+03  3.995471723036414915e+03  3.951332462919414866e+03  3.920847782554993046e+03  3.955905835529421438e+03  4.058034875566668234e+03  4.172587312076679154e+03  4.033633852798115186e+03  3.841314649090044441e+03  3.709380124398840053e+03  3.732406299425914767e+03  3.895258713666903532e+03  3.947138595556094515e+03  4.013988343401558723e+03  3.915418072765581655e+03  3.702467392649598878e+03  3.529582737380480012e+03  3.247834898045518457e+03  3.133690458470826343e+03  3.252743716158303869e+03  3.534319869269991614e+03  3.698628630210444953e+03  3.540225683913404737e+03  3.478268544430514339e+03  3.419366926644088380e+03  3.477514370360711837e+03  3.685787170084623540e+03  3.885329642834952665e+03  3.974326723869206489e+03  4.058107538764464152e+03  4.000800494582028932e+03  3.932149838214765623e+03
3.444807583217058891e+03  3.482303810242875898e+03  3.621851041392723346e+03  3.642504798462450253e+03  3.721399198222655286e+03  3.674691140910743798e+03  3.729736707933469916e+03  3.708039561937604503e+03  3.675248732901282438e+03  3.707777044710072914e+03  3.683225341898938950e+03  3.719622714962760256e+03  3.853884286978365253e+03  3.903563158842054236e+03  3.952545027010645299e+03  3.911218579865499578e+03  3.945636220071940443e+03  3.851760779361239202e+03  3.685719029724532902e+03  3.673356962434786055e+03  3.714040983789515394e+03  3.611568892983174010e+03  3.548378435178863583e+03  3.562966520142066656e+03  3.602931193040001290e+03  3.741151892348986621e+03  3.834343206632173406e+03  3.787826410878727984e+03  3.693232913371977247e+03  3.599427021248965048e+03  3.516855455318242548e+03  3.440515817864642941e+03  3.258279505955755667e+03  3.155441227057431206e+03  3.150015373265587186e+03  3.145034401698429974e+03  3.300515734838167646e+03  3.447251584241446380e+03  3.624334765785282798e+03  3.763649228693868281e+03  4.009121784448347171e+03  4.235855686152732233e+03  4.018510100252018674e+03  3.947767984781521136e+03  3.919739701302121830e+03  3.836758940100716245e+03  3.772775311305537343e+03  3.725964081848185288e+03  3.593915096342379911e+03  3.582396995222770329e+03  3.577220387886317894e+03  3.571794537511224917e+03  3.566368691009310623e+03  3.560957060858904697e+03  3.670884443717170598e+03  3.717029727134494806e+03  3.841442403294240648e+03  3.992010478263123787e+03  4.152152666266892084e+03  4.290408589325596949e+03  4.239613222224535093e+03  4.309958553120352917e+03  4.501277935761907429e+03  4.724514621213638748e+03  4.618120678174720524e+03  4.287599488958840084e+03  4.078004641022287615e+03  4.118623951685533939e+03  4.291701249955097410e+03  4.573982449486833502e+03  4.410474188519753625e+03  4.281946714955854077e+03  4.159210700576410090e+03  4.097845258948776973e+03  4.042565203190140892e+03  4.085903037510904596e+03  4.144337169967205227e+03  4.082088688765899406e+03  3.996981546417730442e+03  3.931673024706963133e+03  3.862824649692949151e+03  3.752728692487782610e+03  3.827049888856670350e+03  3.972284874941378803e+03  4.085753287703353635e+03  4.021189036182086056e+03  3.836396418665977308e+03  3.644549501706148021e+03  3.413241857737024020e+03  3.247202246173833828e+03  3.112848029573132862e+03  3.194638582756655069e+03  3.374130688585213647e+03  3.483451012152479507e+03  3.395747395131271333e+03  3.309485214772897962e+03  3.292626557369328111e+03  3.517341504603543399e+03  3.665323175552704924e+03  3.824179390627088651e+03  4.051235367328989014e+03  4.078242109007030649e+03  3.990365283440342864e+03  3.817124011359877386e+03
3.499152057316781338e+03  3.549976820705113823e+03  3.562592506329018306e+03  3.724023284475063974e+03  3.845666563943129404e+03  3.773639012085134254e+03  3.839845561777287912e+03  3.798102211654394978e+03  3.788277799027403944e+03  3.861264103235535458e+03  3.803769462334066247e+03  3.792343612986729113e+03  3.871591930646677611e+03  4.025580480821226047e+03  4.156775525617824314e+03  3.973876459056812109e+03  3.903154409903396299e+03  3.761053247415765782e+03  3.609615698962979423e+03  3.534635742625005605e+03  3.523840909935466698e+03  3.461726773677921756e+03  3.431167097776026822e+03  3.505222822289065334e+03  3.593617086881090927e+03  3.672717983551852740e+03  3.781858163758564388e+03  3.867706067170076494e+03  3.771022001474810168e+03  3.685706061403176591e+03  3.573747346480575288e+03  3.412462315920870878e+03  3.230231044654926791e+03  3.142342059169605818e+03  3.136916209619567780e+03  3.131487242676869300e+03  3.233955672565532041e+03  3.429382192752543688e+03  3.591237739360923570e+03  3.761108158957705655e+03  3.944034678903517943e+03  4.118617317834217829e+03  4.082551978543744099e+03  4.034588883575075215e+03  4.054082256325356411e+03  4.002516505645836787e+03  3.927996420911892983e+03  3.846319261463661860e+03  3.588483504871972400e+03  3.575380103388699808e+03  3.563877184770392432e+03  3.558695379798066369e+03  3.553269527299615675e+03  3.547843709524042424e+03  3.585362001087346471e+03  3.688665225766849744e+03  3.908226114842159859e+03  4.040282685331828816e+03  4.132816318384389888e+03  4.053444175445989458e+03  3.956610195082692371e+03  4.098675296085829359e+03  4.377632340394018684e+03  4.444170122503563107e+03  4.331494099155504045e+03  4.313628384697645743e+03  3.995854366979478073e+03  3.932194751025871483e+03  4.097361007926022467e+03  4.331669493401761429e+03  4.500945765659872450e+03  4.466163519342680047e+03  4.368203343205422243e+03  4.314857670531725489e+03  4.187233456920783283e+03  4.090425242531672211e+03  4.044620794302034938e+03  3.967030213000052754e+03  3.942835489392056388e+03  3.933611274115760352e+03  3.938174761780505833e+03  3.917096063387230970e+03  3.970688866883419450e+03  4.114345530229108590e+03  4.221961115804786459e+03  4.031785886376042527e+03  3.849063754004946077e+03  3.620582409956895390e+03  3.564464009824784171e+03  3.349183996104878133e+03  3.166356672221964345e+03  3.089444110907896174e+03  3.200226337237812459e+03  3.198065067645266936e+03  3.229069189103429380e+03  3.211244535702586290e+03  3.365118519810142061e+03  3.551251992572143990e+03  3.752304624332424737e+03  3.949098552144951100e+03  4.017900787146906168e+03  4.082667728654099392e+03  3.904158706544351389e+03  3.765346799420738535e+03
3.600968579279696314e+03  3.564302143741430882e+03  3.601289853796361967e+03  3.630305022519649356e+03  3.734770150518680111e+03  3.884872666012935952e+03  3.906253931800792543e+03  3.852218298020471138e+03  3.869329937571393202e+03  4.017915490811616564e+03  3.976728253133293492e+03  3.903730615346138620e+03  3.930840038447446659e+03  4.074064609930626830e+03  4.127395739238257192e+03  3.869122372899907532e+03  3.704301662641511030e+03  3.577348615349810188e+03  3.436688085234681239e+03  3.470948411823673723e+03  3.432488194652254151e+03  3.353984177692800586e+03  3.421732305217021803e+03  3.494071603146200687e+03  3.607842216817129156e+03  3.712110323638804857e+03  3.849679228939208770e+03  3.992863195106539024e+03  3.861734540304068560e+03  3.756516400676992362e+03  3.584579018375941814e+03  3.442467848888628396e+03  3.296239345278193014e+03  3.129268449660382430e+03  3.123817046033062979e+03  3.118385428172528464e+03  3.188259012759180223e+03  3.336344669581554172e+03  3.481549014150452422e+03  3.661126393589482177e+03  3.811122584832776283e+03  4.008660480462091073e+03  4.256383965613827968e+03  4.147742945597291509e+03  4.149268946779403450e+03  4.060441134629718363e+03  3.978494911178343500e+03  3.764074598844663797e+03  3.583270980865232559e+03  3.570017488672369382e+03  3.556855106102407717e+03  3.545352537981624664e+03  3.540170361476302787e+03  3.534744517116961106e+03  3.529259682117846296e+03  3.662979281686329159e+03  3.824759763599087819e+03  3.972974718140367258e+03  4.084187979045804241e+03  3.901569044957306687e+03  3.851512139801626745e+03  3.858531319157978487e+03  4.087069797155255856e+03  4.154459332760397956e+03  4.333713544155658383e+03  4.329711186902686677e+03  4.034319459992820157e+03  3.852201426999557498e+03  3.826526915499579900e+03  3.934799556137444597e+03  4.011449601238095511e+03  4.195047807820405978e+03  4.383625795671551714e+03  4.339518996988178515e+03  4.159410945750799328e+03  4.074253421631172841e+03  4.017591957563603046e+03  3.997694554085765049e+03  3.970788820721040793e+03  4.001639362194800924e+03  4.091860702923545887e+03  4.172096840018778494e+03  4.113805333682694254e+03  4.178065028405329940e+03  4.303367310282814287e+03  4.101311094923228666e+03  3.860132440954322647e+03  3.802442358906127538e+03  3.634281104147005863e+03  3.435361534420970202e+03  3.256480055697999433e+03  3.075331292310539538e+03  3.066283801692513862e+03  3.122839468389474860e+03  3.211244534702586407e+03  3.306234597523013235e+03  3.480876394844825882e+03  3.618810623616641351e+03  3.797844667236183795e+03  4.045868050092643898e+03  4.118813796330082369e+03  4.041583194869910585e+03  3.842548283710548731e+03  3.695441238661571788e+03
3.687151701321210567e+03  3.653930100198062064e+03  3.635877153657005692e+03  3.700119883917045627e+03  3.728313938077806142e+03  3.858900644321475738e+03  3.931111882300941943e+03  3.919169783219683723e+03  3.921714175902534407e+03  4.084165433799103084e+03  4.171484722227785824e+03  4.070871111113870029e+03  4.073206397951882536e+03  4.191124396735986920e+03  4.190761537948221303e+03  3.954499423391040182e+03  3.704860125807772874e+03  3.459418990384321205e+03  3.372531791052761946e+03  3.366557240378719143e+03  3.320513467035656049e+03  3.329463114877697990e+03  3.416161938978410035e+03  3.492193557043451619e+03  3.591597256306680720e+03  3.768140446562182660e+03  3.956615338291536318e+03  3.954074701081369767e+03  3.805887134836314544e+03  3.703348262689532930e+03  3.568833461275548871e+03  3.412541317057869037e+03  3.316661996943409576e+03  3.116167570382599479e+03  3.110717882194799586e+03  3.105286510761743557e+03  3.115595392772201194e+03  3.234771517019928069e+03  3.405982685527765170e+03  3.604996490711024308e+03  3.794522035155981030e+03  4.008321264058069119e+03  4.198517666471350822e+03  4.019043982361907638e+03  3.988692436822066611e+03  3.881952550428854920e+03  3.885728215799249938e+03  3.776886090469120063e+03  3.583352503442557918e+03  3.564591642511011742e+03  3.551492585281051106e+03  3.538330076683433163e+03  3.526827624324839690e+03  3.521645356520615678e+03  3.516221426753592368e+03  3.622602702117649642e+03  3.740030096025209787e+03  3.883069850373914960e+03  4.022884935401175426e+03  3.881120304082787243e+03  3.757400051956790776e+03  3.691811707250652944e+03  3.844132144264074213e+03  4.084004750157976559e+03  4.398020096693422602e+03  4.306430043630471118e+03  4.001316613279554531e+03  3.866176071948649678e+03  3.788968393565093720e+03  3.781287576313264708e+03  3.823942713019992880e+03  3.990313472633417405e+03  4.112002874894155866e+03  4.227936810516032892e+03  4.288882562246659290e+03  4.139946239598029933e+03  4.050235750871452638e+03  4.122130937502195593e+03  4.113765283127620933e+03  4.140859161736374517e+03  4.052882975695884852e+03  3.991879704829111688e+03  3.888999147632750464e+03  3.970505636770013552e+03  4.094384053950682755e+03  4.190301909498501118e+03  4.052069501032879089e+03  3.954894592133519382e+03  3.767168235727908268e+03  3.560629467937780646e+03  3.354626859373884599e+03  3.180639551877725808e+03  3.065737232261134523e+03  3.065494364533466069e+03  3.233448577403814397e+03  3.383134802387506625e+03  3.506966084654059159e+03  3.563416877316082719e+03  3.686508011684703888e+03  3.829333021221260424e+03  3.978057126213674564e+03  3.882057427041666415e+03  3.753728161267011728e+03  3.629484118444453088e+03
3.853109982434779340e+03  3.802266165110828751e+03  3.840758659031918341e+03  3.746064941273150907e+03  3.779403802432981593e+03  3.814253672544763958e+03  4.063548915020720415e+03  4.063641373244890474e+03  4.110088617631040506e+03  4.215100389891136729e+03  4.223065866362269844e+03  4.125147428803702496e+03  4.101841676051077229e+03  4.196918386895752519e+03  3.903676376088333200e+03  3.808541206317418073e+03  3.650508085514896720e+03  3.407396674928001175e+03  3.280781761473908318e+03  3.242079883187627274e+03  3.270504737175699574e+03  3.371311550075728519e+03  3.459107279559001654e+03  3.580251445084268198e+03  3.681088657252737903e+03  3.801035066958048446e+03  3.916845590785100740e+03  3.916082543007065397e+03  3.783057369103452402e+03  3.679446036959201138e+03  3.535826399814471642e+03  3.419846672356151430e+03  3.228437233904904133e+03  3.103051969932118482e+03  3.097618718499769784e+03  3.092188588920730126e+03  3.116388740401764608e+03  3.321083805012763150e+03  3.445854218318493622e+03  3.534822864832341111e+03  3.744725402475844930e+03  3.925521319200125163e+03  4.150494700004144761e+03  4.054239705875446816e+03  3.908344555170264357e+03  3.762539097951635995e+03  3.767796169234813988e+03  3.770472234100896458e+03  3.572663591467722654e+03  3.559165796667527047e+03  3.546066633050141263e+03  3.532967467837642289e+03  3.519805086122477860e+03  3.508300218593369664e+03  3.503120313399573206e+03  3.564156477372465361e+03  3.725537005566584412e+03  3.910145761793069141e+03  4.083416608116335283e+03  3.906817655641019883e+03  3.725340582166712011e+03  3.628353970789140931e+03  3.693967200333852816e+03  3.915164849596104432e+03  4.169523395915498440e+03  4.315154455949349540e+03  3.995858215803664734e+03  3.822347413743353172e+03  3.722825286516615051e+03  3.734001675808179243e+03  3.801583329438069541e+03  3.925695029179130870e+03  4.063337203434729417e+03  4.187696442514622504e+03  4.183394100265590168e+03  4.253888341374433367e+03  4.135485803067174857e+03  4.039576408669339344e+03  3.911488071070494698e+03  3.975957157420651129e+03  3.842200531197451710e+03  3.765325963021527969e+03  3.761839885382116336e+03  3.796740719928201543e+03  3.885228290025782371e+03  4.048182700405296600e+03  3.906055469121451551e+03  3.859543243335549050e+03  3.773333592242817758e+03  3.571876249545637620e+03  3.367173290324345089e+03  3.188119309613806763e+03  3.102098823225192064e+03  3.034764123220968486e+03  3.167188438247697832e+03  3.264150222342140751e+03  3.361866718425336785e+03  3.426146421113559882e+03  3.532045450450665612e+03  3.674439354218196968e+03  3.870172511284025404e+03  3.821006758792952496e+03  3.696672046278602465e+03  3.580606803910235158e+03
3.994229250906083507e+03  3.947898755091150178e+03  4.020971953633626072e+03  3.927783708407072936e+03  3.816446940814905702e+03  3.832406770492181295e+03  3.946645960799580280e+03  4.181670631492524990e+03  4.352480381830041551e+03  4.261251332560219453e+03  4.210426091226478093e+03  4.147332993735426498e+03  4.052689105741036201e+03  3.935716381394609016e+03  3.801548787335344514e+03  3.696580705981433766e+03  3.513856570726386963e+03  3.328685274925458998e+03  3.205516710205250547e+03  3.243104936853670097e+03  3.353876768630412698e+03  3.444136215509854082e+03  3.526825712561214914e+03  3.626847681203609227e+03  3.716600381208827457e+03  3.790922431680555292e+03  3.893980980313086548e+03  3.976171337106903593e+03  3.864650284593006290e+03  3.712663382581428777e+03  3.571807372343610041e+03  3.454397532714687259e+03  3.240616607577301693e+03  3.089945187300108046e+03  3.084519554782606974e+03  3.079086927369059595e+03  3.178706600170695765e+03  3.368451774220383868e+03  3.496932286437882794e+03  3.569599163147202944e+03  3.702290780332617032e+03  3.896003527672693963e+03  4.125294145892631605e+03  4.080063377721623056e+03  3.949839218505414010e+03  3.779038207948023683e+03  3.708252397744924110e+03  3.662971615596752599e+03  3.588927728532764377e+03  3.553739874459613020e+03  3.540640786557200045e+03  3.527541622834094596e+03  3.514442473478053671e+03  3.501280056725391660e+03  3.489776701405386120e+03  3.528371739772699584e+03  3.686253128965835913e+03  3.745183590565061422e+03  3.862447173883774667e+03  4.001490899016290314e+03  3.825653518833495582e+03  3.649205463510255868e+03  3.597603088529615434e+03  3.785953541019631757e+03  4.026288442086128271e+03  4.319695421349335447e+03  4.083806188903503426e+03  3.838215393267029867e+03  3.688089533485638640e+03  3.695335549936581174e+03  3.710083715448999556e+03  3.813481917323769721e+03  3.950047003673517338e+03  3.947216767596420596e+03  3.973862689764296192e+03  4.133529881970862334e+03  4.060063178338088164e+03  3.948172836503486906e+03  3.791054969432670987e+03  3.802256495523658486e+03  3.738011781532761688e+03  3.618346881030107397e+03  3.602514326525098113e+03  3.693008966544617124e+03  3.803419774489375868e+03  4.002386544212155968e+03  3.889265887857531652e+03  3.745684212543146714e+03  3.595478145522054092e+03  3.443734139340482216e+03  3.374420052665558160e+03  3.282184210015102053e+03  3.119066261012017094e+03  3.021633533702313798e+03  3.059517143145833870e+03  3.151619275445282256e+03  3.263557145464767927e+03  3.346268718745484875e+03  3.494754357313565833e+03  3.634681859095074742e+03  3.679792134323683968e+03  3.849797994033431678e+03  3.733823931907650604e+03  3.580606804910235041e+03
4.021980538172599154e+03  4.122833928207065583e+03  4.184163400083441047e+03  4.088768232145845104e+03  3.938003504103172418e+03  3.890534564506043807e+03  4.014170085615591688e+03  4.219251691604899861e+03  4.441377544937913626e+03  4.413154981564493028e+03  4.399589235464422018e+03  4.235856970548331446e+03  4.053725017769540955e+03  3.849577535336107758e+03  3.707015970902468780e+03  3.594912065938402066e+03  3.416376812112697735e+03  3.261880465819469919e+03  3.176526796816434398e+03  3.297166142498320369e+03  3.417155399721802041e+03  3.541474328715394222e+03  3.640244690208815427e+03  3.697885317458061309e+03  3.769810494439433114e+03  3.815465340574872243e+03  3.932785798532460376e+03  3.994526875557678522e+03  3.836796184324839032e+03  3.711479898588680953e+03  3.603380475607553763e+03  3.461940654419701332e+03  3.307898099404932964e+03  3.076795922339857043e+03  3.071420391120815566e+03  3.065986360292436984e+03  3.188167667734981478e+03  3.353649694963673028e+03  3.516261418321449128e+03  3.660195126225433796e+03  3.821578712152961089e+03  4.008416966845873048e+03  4.166835881924672321e+03  4.096531145671143349e+03  3.999958223416757846e+03  3.882108943015003661e+03  3.818544869698707316e+03  3.817041515617077948e+03  3.738230740345693448e+03  3.570648213340549773e+03  3.535214998335018208e+03  3.522115776334633210e+03  3.509016612601616089e+03  3.495917492233324083e+03  3.482755050506698353e+03  3.471254586953754369e+03  3.514755280016553115e+03  3.634853157373290742e+03  3.752923706156909702e+03  3.942646224470296147e+03  3.866839218773007815e+03  3.661836441366974213e+03  3.567864195715251299e+03  3.599970920351323912e+03  3.769648988780530544e+03  4.063995441232633311e+03  4.174521271498835631e+03  3.871271082774731440e+03  3.674543060472428806e+03  3.672403500529214853e+03  3.606641806280337732e+03  3.710819260779421256e+03  3.836311768373373525e+03  3.758170985313786332e+03  3.772875755375038352e+03  3.940838713318607006e+03  4.020868291800265069e+03  3.854717257272645838e+03  3.741518691207261327e+03  3.622405521106896686e+03  3.553339239726771211e+03  3.495506079989760110e+03  3.486321592921064166e+03  3.718702635212822315e+03  3.892970382913594221e+03  4.049241485882867437e+03  3.973695225138239039e+03  3.761396000693832320e+03  3.671294794133713367e+03  3.674814951079653838e+03  3.511243618487857475e+03  3.309063516559074742e+03  3.156248123379081335e+03  3.042573787230682683e+03  3.015719997221722224e+03  3.100105344743991282e+03  3.215640813868691112e+03  3.327722842466752809e+03  3.453481793646692040e+03  3.465346988262470404e+03  3.547820466575386945e+03  3.702257425515454543e+03  3.747365148407704510e+03  3.657221198693993301e+03
4.026241411618351322e+03  4.312912733313474746e+03  4.366012312946249040e+03  4.185956012632100283e+03  4.085204635000351573e+03  4.059095046268141687e+03  4.098847207055407125e+03  4.248390508917664192e+03  4.547901685938057199e+03  4.641790115139287082e+03  4.445810758056085433e+03  4.205245795332900343e+03  3.988260024726782831e+03  3.805107991377406051e+03  3.688423283231475580e+03  3.539613849395123452e+03  3.371588144289211868e+03  3.201033110168039457e+03  3.161309246005412660e+03  3.290218764997017388e+03  3.460958656099581731e+03  3.486630962320340586e+03  3.413385380666366927e+03  3.494969587841984321e+03  3.693899942091995854e+03  3.884195448917255817e+03  4.000577937744107203e+03  4.018172549306779274e+03  3.927871931695060084e+03  3.786302935030376830e+03  3.726740103463868309e+03  3.653203036358591362e+03  3.302191400347467606e+03  3.063752189066406572e+03  3.058321227388817533e+03  3.052698671247910625e+03  3.267067384673274319e+03  3.485729185321065870e+03  3.638251069920958344e+03  3.773328170109428811e+03  3.955533271662235620e+03  4.132783124074284387e+03  4.356114801638314930e+03  4.175288535242599210e+03  4.129915367396623878e+03  4.066281945455682489e+03  4.013169893634710206e+03  4.025700457970316165e+03  3.856136507297896060e+03  3.728190774345850514e+03  3.528768185762959547e+03  3.516689929840728382e+03  3.503590766114356029e+03  3.490491602384769976e+03  3.477392368141690440e+03  3.464229982040317736e+03  3.452723526148235578e+03  3.574197152413996264e+03  3.762986035543090566e+03  3.829496227976825594e+03  3.877679621981439595e+03  3.687473622564410562e+03  3.549888358665098622e+03  3.557126861217221176e+03  3.687108249601642456e+03  3.920190004939835035e+03  3.977225159928996618e+03  3.781165672914954484e+03  3.647449548636971485e+03  3.665075107808040684e+03  3.553935367298750407e+03  3.689414011157490222e+03  3.807667656018375510e+03  3.646025959750756101e+03  3.673761421681000229e+03  3.786019630105532997e+03  3.974155966087047091e+03  3.878315030334410949e+03  3.738781923402958455e+03  3.667175775653864548e+03  3.516650776196182505e+03  3.397691200496362853e+03  3.390374430004748319e+03  3.607173132332102796e+03  3.877451014853584638e+03  4.091260214841606739e+03  4.035598166843978106e+03  3.933632288837040960e+03  3.835292788713755726e+03  3.753345165329771135e+03  3.545516746116887134e+03  3.342317602208601329e+03  3.140597180885697526e+03  3.063553502720456891e+03  3.015719996221722340e+03  3.017499608727141549e+03  3.245259403137110894e+03  3.271604518781378829e+03  3.284245188188986958e+03  3.385636636710342827e+03  3.530813691966028728e+03  3.696477963943341365e+03  3.847868129848457556e+03  3.773648181662435945e+03
4.026241412618351205e+03  4.179269973689392828e+03  4.361428713918587164e+03  4.388166694652220031e+03  4.297081989118571073e+03  4.290243848148174038e+03  4.261017742294523487e+03  4.268722984888458996e+03  4.433344388829535092e+03  4.385807506551194820e+03  4.297670654362919777e+03  4.227915181870223932e+03  3.932283024461962214e+03  3.749470049568451032e+03  3.579893967300286477e+03  3.428686231802883867e+03  3.294351495800331577e+03  3.156790882531443458e+03  3.135845268521046364e+03  3.194602323222075938e+03  3.356920487780468193e+03  3.234158699675086609e+03  3.277610838846247134e+03  3.387695584569283710e+03  3.520033611952590491e+03  3.731242772900431191e+03  4.000740414634957688e+03  4.097472370409411269e+03  3.957716645950910333e+03  3.876130754129744219e+03  3.849213868036498297e+03  3.562758079563242518e+03  3.291879942084352024e+03  3.050559307152902875e+03  3.045222063687128866e+03  3.039809840907188573e+03  3.233590500483472169e+03  3.471356568501485981e+03  3.626796910088016375e+03  3.869776566863228254e+03  4.040224571299469062e+03  4.252630222857987974e+03  4.363611644440285090e+03  4.228240355303297292e+03  3.962921582561215018e+03  4.065327994293794745e+03  4.104635453741053425e+03  3.991224365620968001e+03  3.928470874671512775e+03  3.779288690712120115e+03  3.627793285159997140e+03  3.511264125513803265e+03  3.498164919624096910e+03  3.485065755893514506e+03  3.471966592156308252e+03  3.458867482575720715e+03  3.445705040943608765e+03  3.446982378560380766e+03  3.643642941532442364e+03  3.623928663970068555e+03  3.707831497108067651e+03  3.647845618594456027e+03  3.451110443821209628e+03  3.464791325945755943e+03  3.630598298294040433e+03  3.878582706468804645e+03  3.777519915582807698e+03  3.688283599641194087e+03  3.616724597008700130e+03  3.604286852028186331e+03  3.552250763955943057e+03  3.615640261240576820e+03  3.756023969059956016e+03  3.577709095180568966e+03  3.563763487550322679e+03  3.714125059905612943e+03  3.788816680015200291e+03  3.681432608068274931e+03  3.633985142425365666e+03  3.561389883642294990e+03  3.562525413721994482e+03  3.391632462128539828e+03  3.313080797501927464e+03  3.423285191860168652e+03  3.725592994625220854e+03  3.923930225345991857e+03  3.826287238200903630e+03  3.804999201443464244e+03  3.773739617606818229e+03  3.582283549666299677e+03  3.535495817236343555e+03  3.335527451854079573e+03  3.132340512725395456e+03  3.074376361535140404e+03  2.991585319570407592e+03  2.998132936510193758e+03  3.130306955602403377e+03  3.163558193037660658e+03  3.321881560191204699e+03  3.460892854860868283e+03  3.599268594007237880e+03  3.641210753008682332e+03  3.736071163814546708e+03  3.810875905061175217e+03
4.054576828667216432e+03  4.192409055752520544e+03  4.363473318868225761e+03  4.260347641316607223e+03  4.314123912190917508e+03  4.334586505594385017e+03  4.281018072706679050e+03  4.426806665612720280e+03  4.467387644379718040e+03  4.216358550234178438e+03  4.041677363748556218e+03  4.021573090394052088e+03  3.843785209427216159e+03  3.715202660858197760e+03  3.523041545456555014e+03  3.356861464675894240e+03  3.236511168010268193e+03  3.130382296677823433e+03  3.063173207918417120e+03  3.057544681867482268e+03  3.111755731793060022e+03  3.104823826200733947e+03  3.171455053454759764e+03  3.275329314247226648e+03  3.426241683116912100e+03  3.626157106676384956e+03  3.749854021624693814e+03  3.883712503634862060e+03  3.963313532322670198e+03  3.861862904154975695e+03  3.802425674873948992e+03  3.548164091478166483e+03  3.235532650580525569e+03  3.037559536531836329e+03  3.032122899927032449e+03  3.026704694650637066e+03  3.153416789263407281e+03  3.372528974713214666e+03  3.514362728442147272e+03  3.711280626563348960e+03  3.943103370087759686e+03  4.211218803792085055e+03  4.172062196881907767e+03  4.047454317563280256e+03  3.888950223730038942e+03  3.817821235927354337e+03  3.796417656289188017e+03  3.806126393759268012e+03  3.929785070373676717e+03  3.910237004919079027e+03  3.665826338656016560e+03  3.505839094848854984e+03  3.492739073132589965e+03  3.479639909401494151e+03  3.466540745667728970e+03  3.453441581944150585e+03  3.440342440854848064e+03  3.427180038274620529e+03  3.453853067453995209e+03  3.431246313071320401e+03  3.481002740817604263e+03  3.428644274290499197e+03  3.398104642787037392e+03  3.406142407792197901e+03  3.431733720082959735e+03  3.543982184494952890e+03  3.605006542170726789e+03  3.626512058338127645e+03  3.573088499864079040e+03  3.499439042032067846e+03  3.487974294698964968e+03  3.539908155565358356e+03  3.665564343301348799e+03  3.553516458482152302e+03  3.465914131976483986e+03  3.576497113543900923e+03  3.614298373686611285e+03  3.502241775002456052e+03  3.510149001017892715e+03  3.420712246830586082e+03  3.534233800811854962e+03  3.422905181194919805e+03  3.267777836122767440e+03  3.312077889154646073e+03  3.592709056066054472e+03  3.828227576288646105e+03  3.668970959784852312e+03  3.601065319903470026e+03  3.700875809650623978e+03  3.555657309565241576e+03  3.423572666807107908e+03  3.316578961804769733e+03  3.110167634650986201e+03  3.021107928391852056e+03  2.975043556499838360e+03  2.971015854546775699e+03  3.114755351665743092e+03  3.209818163914020261e+03  3.366030582321144266e+03  3.489954388411654691e+03  3.463931201545694876e+03  3.546596846120966347e+03  3.678877403470703484e+03  3.612864536364244941e+03
4.140202472812005908e+03  4.253703775554534332e+03  4.376633597599797213e+03  4.195867064412806030e+03  4.144738205768293483e+03  4.240349026247995425e+03  4.192001928055053213e+03  4.354115166708945253e+03  4.510820963688929623e+03  4.167934444111520861e+03  3.948801000527848373e+03  3.881464297989161423e+03  3.824978846908693413e+03  3.767736074629031918e+03  3.584507826682234736e+03  3.422386142686309995e+03  3.267650428824621486e+03  3.152227191736468740e+03  3.067961630931118634e+03  2.971446452278768902e+03  2.986976652131425908e+03  3.050860344952626292e+03  3.162403565371185778e+03  3.231550324335081314e+03  3.356770743898002820e+03  3.509926005288837587e+03  3.632616856175791327e+03  3.771065843742859670e+03  3.836720160900882547e+03  3.647869642377496803e+03  3.504704631472622168e+03  3.389909899842971754e+03  3.219343225067472758e+03  3.024431260002247654e+03  3.019023736270153677e+03  3.013599156141738604e+03  3.053670183839618403e+03  3.227801342660343380e+03  3.436512999397380099e+03  3.686496665468691845e+03  3.929619811110312639e+03  4.188363930888259347e+03  4.151869801676697534e+03  3.927541518071058363e+03  3.847553723961264041e+03  3.726314549549794719e+03  3.651556437730853304e+03  3.666649890686853723e+03  3.734956652502706675e+03  3.877309732318819897e+03  3.727408079818054375e+03  3.527551192446891037e+03  3.487313224555131001e+03  3.474214062910551093e+03  3.461114899180228349e+03  3.448015735444434995e+03  3.434916571707235107e+03  3.421817465998390617e+03  3.408655015179506336e+03  3.395555847113471373e+03  3.382456772794483641e+03  3.369357506035486040e+03  3.356258356594651559e+03  3.343158882647150222e+03  3.330059928946133368e+03  3.352628543431776052e+03  3.382672178596535559e+03  3.487185269924517797e+03  3.488092884512869205e+03  3.416547260596255910e+03  3.399731084337416632e+03  3.399614902898529181e+03  3.437816165048962830e+03  3.451284266482748990e+03  3.355917782042750787e+03  3.475451430666279521e+03  3.570261423114488935e+03  3.400047395258889082e+03  3.336293066313663530e+03  3.335332327300622183e+03  3.463584048013441588e+03  3.406448020627071401e+03  3.259551608764004413e+03  3.249626669707969540e+03  3.452339985036569033e+03  3.652200946155624933e+03  3.637854786677189622e+03  3.481072086028317244e+03  3.443457696048760226e+03  3.532726712729991050e+03  3.575107914321693897e+03  3.361798892136452650e+03  3.144750617600484929e+03  2.996513606500758669e+03  2.966090823926703251e+03  2.972883593975345320e+03  3.063413434495324054e+03  3.210495678342857900e+03  3.338929153463924195e+03  3.328012517800711066e+03  3.434590972861543378e+03  3.480028160406258394e+03  3.440527136714706103e+03  3.423941848376088728e+03
4.305197305751857130e+03  4.303892299249537245e+03  4.261565990196760140e+03  4.167358104617623212e+03  4.088598346083070282e+03  4.059161262606245145e+03  4.078744785365087409e+03  4.276936216481355586e+03  4.495918080925958748e+03  4.261742214695503208e+03  3.981157702875752875e+03  3.869043390126522354e+03  3.835666957555895806e+03  3.785267063260392206e+03  3.690014880993287534e+03  3.661034053252382364e+03  3.464273024888614600e+03  3.339855323958252029e+03  3.206636768686188134e+03  2.970494186005956180e+03  2.918902345403261279e+03  2.987193829939069474e+03  3.103678848149546866e+03  3.198088224828742568e+03  3.301980868574172291e+03  3.500617482100270536e+03  3.678404311894480543e+03  3.915361981339279737e+03  3.774056254335735048e+03  3.561627808822501265e+03  3.372186418327216415e+03  3.239117699597892170e+03  3.103168178321730920e+03  3.011350246135113139e+03  3.005924572526257634e+03  3.000500221892669742e+03  2.999404530579839502e+03  3.180304953891399236e+03  3.365495394730000953e+03  3.600491307914836852e+03  3.845013020823173065e+03  4.124754661622927415e+03  4.246935090451220276e+03  4.035173901164832841e+03  3.859499296868541933e+03  3.704408915118278856e+03  3.589990680722669822e+03  3.564463594222942447e+03  3.721296134973295011e+03  3.865346285191255902e+03  3.816983683511896743e+03  3.625165815639652465e+03  3.486636771846229294e+03  3.468788215833194499e+03  3.455689052683636874e+03  3.442589888945562052e+03  3.429490725224645757e+03  3.416391561487740546e+03  3.403292427524809227e+03  3.390130020257270644e+03  3.377030837870212963e+03  3.363931674137627397e+03  3.350832510405902212e+03  3.337733346674278891e+03  3.324634182942681036e+03  3.311535017819025597e+03  3.298435860880666951e+03  3.285347905712073953e+03  3.347567717456255650e+03  3.307785781461139322e+03  3.273970824927299873e+03  3.232872399972218773e+03  3.220510080597632623e+03  3.214606263883329575e+03  3.239407142489452781e+03  3.361182070062477123e+03  3.334022551000603016e+03  3.358552521678308040e+03  3.216306461311906332e+03  3.259972665249994861e+03  3.343416229803572151e+03  3.310820929440400050e+03  3.219718543929640873e+03  3.201794831376668753e+03  3.338471968227874640e+03  3.492557070787931480e+03  3.507092900522866330e+03  3.439793592904317393e+03  3.262482083117311504e+03  3.363453596090279007e+03  3.444095354070975191e+03  3.418027504899250289e+03  3.148777183076556412e+03  2.990904298156673576e+03  2.934450069742634696e+03  2.972488955537562560e+03  3.100940051927448621e+03  3.172222388624308223e+03  3.189983902188911543e+03  3.216120951364263419e+03  3.303958703927912666e+03  3.248810372078129149e+03  3.243641895189802653e+03  3.269901056081374463e+03
4.356255318026758687e+03  4.227149582342981375e+03  4.146101446038561335e+03  4.127739897284485778e+03  4.089086663406631487e+03  4.044241785245085794e+03  4.016337222792851207e+03  4.161465481811945210e+03  4.189688930331367374e+03  4.312145810590404835e+03  4.142405599873655774e+03  3.944890584700928684e+03  3.964974950014441674e+03  3.959572894694676506e+03  3.838468499951493868e+03  3.584138833457368492e+03  3.393374985428716627e+03  3.262740817275025165e+03  3.285291698423546222e+03  2.965088283761518596e+03  2.864721657875426899e+03  2.899592173530749733e+03  3.071951876414937942e+03  3.235821477674092876e+03  3.364630697899740426e+03  3.521524182082403968e+03  3.671485855808943143e+03  3.809858161008959542e+03  3.781967655513826685e+03  3.624908158744401135e+03  3.445110453190337921e+03  3.280833651434624699e+03  3.087859922728991023e+03  2.998251544742193346e+03  2.992825408817147036e+03  2.987400526686249123e+03  2.987770536347046800e+03  3.177381840121255664e+03  3.374516023338015657e+03  3.559648688351581313e+03  3.793664104262750243e+03  4.068824803346714361e+03  4.211571468612228273e+03  4.037559932279909390e+03  3.857578827810779785e+03  3.652753849059767163e+03  3.486444801188450583e+03  3.486092520008663996e+03  3.679865591917572601e+03  3.713396240937844595e+03  3.910426639102045101e+03  3.695070967826530250e+03  3.545588741440811646e+03  3.463168619680319352e+03  3.450263206121442181e+03  3.437164042472399160e+03  3.424064878739019150e+03  3.410965715000574164e+03  3.397866551262890425e+03  3.384767437284577682e+03  3.371604987697472552e+03  3.358505827643808061e+03  3.345406663918909544e+03  3.332307500182560489e+03  3.319208336449717535e+03  3.306109172719703110e+03  3.293010008980334533e+03  3.279910845120937665e+03  3.266812028529149757e+03  3.253713170550863651e+03  3.240613354057401466e+03  3.227514190266228070e+03  3.214415026213763213e+03  3.201315864429029261e+03  3.188216117355865208e+03  3.175051778470441604e+03  3.162116511122789689e+03  3.150418250419306332e+03  3.142727272298574007e+03  3.122957736680320977e+03  3.162824794992015541e+03  3.143591154278115482e+03  3.087261899726910997e+03  3.081512119203185648e+03  3.189821084569826326e+03  3.237246561837948775e+03  3.291392599356252958e+03  3.327896212492812083e+03  3.184927410648522255e+03  3.194880303778892539e+03  3.294033883658384184e+03  3.291373310768716237e+03  3.071422757705993263e+03  2.939698879487909835e+03  2.928239517269553289e+03  2.912486834525048380e+03  2.967277023222095977e+03  2.988409554017190658e+03  2.987817745808161362e+03  3.082213768389402048e+03  3.049372201719412260e+03  3.027544771837388907e+03  3.067887708277989077e+03  3.114423405276658741e+03
