2.815888916015625000e+03  2.622138916015625000e+03  2.453166748046875000e+03  2.479944335937500000e+03  2.735277832031250000e+03  2.956972167968750000e+03  3.177805664062500000e+03  3.391250000000000000e+03  3.634750000000000000e+03  3.484333251953125000e+03  3.316694335937500000e+03  3.165694335937500000e+03  3.013750000000000000e+03  2.909611083984375000e+03  2.802694335937500000e+03  2.744361083984375000e+03  2.800500000000000000e+03  2.752638916015625000e+03  2.782527832031250000e+03  2.800194335937500000e+03  2.816805664062500000e+03  2.881000000000000000e+03  2.944500000000000000e+03  2.950916748046875000e+03  2.956333251953125000e+03  2.972777832031250000e+03  2.988555664062500000e+03  2.992416748046875000e+03  2.989777832031250000e+03  3.063333251953125000e+03  3.147805664062500000e+03  3.158888916015625000e+03  3.261333251953125000e+03  3.233777832031250000e+03  3.238722167968750000e+03  3.305666748046875000e+03  3.388416748046875000e+03  3.478166748046875000e+03  3.476444335937500000e+03  3.546055664062500000e+03  3.641277832031250000e+03  3.760694335937500000e+03  3.888750000000000000e+03  3.998666748046875000e+03  4.159027832031250000e+03  4.317611328125000000e+03  4.458722167968750000e+03  4.505083496093750000e+03  4.344444335937500000e+03  4.119138671875000000e+03  3.894583251953125000e+03  3.814194335937500000e+03  3.752444335937500000e+03  3.711111083984375000e+03  3.699333251953125000e+03  3.653750000000000000e+03  3.601111083984375000e+03  3.536333251953125000e+03  3.478666748046875000e+03  3.476388916015625000e+03  3.563055664062500000e+03  3.713472167968750000e+03  3.679472167968750000e+03  3.611916748046875000e+03  3.608833251953125000e+03  3.756138916015625000e+03  3.880111083984375000e+03  4.025194335937500000e+03  4.129861328125000000e+03  4.193083496093750000e+03  4.089416748046875000e+03  3.985972167968750000e+03  3.965138916015625000e+03  3.928277832031250000e+03  3.833972167968750000e+03  3.784888916015625000e+03  3.725722167968750000e+03
2.825083251953125000e+03  2.678194335937500000e+03  2.428083251953125000e+03  2.425333251953125000e+03  2.568166748046875000e+03  2.810944335937500000e+03  3.054305664062500000e+03  3.331833251953125000e+03  3.572138916015625000e+03  3.463027832031250000e+03  3.271527832031250000e+03  3.143111083984375000e+03  2.946888916015625000e+03  2.805583251953125000e+03  2.726277832031250000e+03  2.657638916015625000e+03  2.630888916015625000e+03  2.619833251953125000e+03  2.652722167968750000e+03  2.807027832031250000e+03  2.894138916015625000e+03  2.943472167968750000e+03  2.996222167968750000e+03  3.005972167968750000e+03  3.007916748046875000e+03  3.023444335937500000e+03  3.032000000000000000e+03  3.069055664062500000e+03  3.152666748046875000e+03  3.311694335937500000e+03  3.289250000000000000e+03  3.356111083984375000e+03  3.361833251953125000e+03  3.380250000000000000e+03  3.390750000000000000e+03  3.472916748046875000e+03  3.518277832031250000e+03  3.613444335937500000e+03  3.567250000000000000e+03  3.582805664062500000e+03  3.657277832031250000e+03  3.757194335937500000e+03  3.874277832031250000e+03  3.997027832031250000e+03  4.073166748046875000e+03  4.172388671875000000e+03  4.362833496093750000e+03  4.399222167968750000e+03  4.217083496093750000e+03  4.049166748046875000e+03  3.920694335937500000e+03  3.850888916015625000e+03  3.813222167968750000e+03  3.785083251953125000e+03  3.792388916015625000e+03  3.726638916015625000e+03  3.608916748046875000e+03  3.542472167968750000e+03  3.516000000000000000e+03  3.535000000000000000e+03  3.690805664062500000e+03  3.823972167968750000e+03  3.825777832031250000e+03  3.684083251953125000e+03  3.673861083984375000e+03  3.747972167968750000e+03  3.865611083984375000e+03  4.010500000000000000e+03  4.134138671875000000e+03  4.235138671875000000e+03  4.136638671875000000e+03  4.103777832031250000e+03  4.130916503906250000e+03  4.072805664062500000e+03  3.987944335937500000e+03  3.941138916015625000e+03  3.823972167968750000e+03
2.772111083984375000e+03  2.631388916015625000e+03  2.401805664062500000e+03  2.377527832031250000e+03  2.498361083984375000e+03  2.832638916015625000e+03  3.073444335937500000e+03  3.270166748046875000e+03  3.472944335937500000e+03  3.404138916015625000e+03  3.157111083984375000e+03  2.995027832031250000e+03  2.846638916015625000e+03  2.738972167968750000e+03  2.635361083984375000e+03  2.582527832031250000e+03  2.571694335937500000e+03  2.576277832031250000e+03  2.662555664062500000e+03  2.819722167968750000e+03  2.973944335937500000e+03  3.039500000000000000e+03  3.051166748046875000e+03  3.107972167968750000e+03  3.117444335937500000e+03  3.144694335937500000e+03  3.214361083984375000e+03  3.282500000000000000e+03  3.386250000000000000e+03  3.500388916015625000e+03  3.445444335937500000e+03  3.551666748046875000e+03  3.451777832031250000e+03  3.501777832031250000e+03  3.578444335937500000e+03  3.568250000000000000e+03  3.698750000000000000e+03  3.713333251953125000e+03  3.691166748046875000e+03  3.735805664062500000e+03  3.757194335937500000e+03  3.881055664062500000e+03  3.933638916015625000e+03  4.005861083984375000e+03  4.068444335937500000e+03  4.130194335937500000e+03  4.229611328125000000e+03  4.420305664062500000e+03  4.263138671875000000e+03  4.037583251953125000e+03  3.964194335937500000e+03  3.913416748046875000e+03  3.854388916015625000e+03  3.899055664062500000e+03  3.905250000000000000e+03  3.719916748046875000e+03  3.591250000000000000e+03  3.557861083984375000e+03  3.551194335937500000e+03  3.632083251953125000e+03  3.763416748046875000e+03  3.939222167968750000e+03  3.944305664062500000e+03  3.746861083984375000e+03  3.741722167968750000e+03  3.779472167968750000e+03  3.822277832031250000e+03  3.932694335937500000e+03  4.083111083984375000e+03  4.232444335937500000e+03  4.289277832031250000e+03  4.251472167968750000e+03  4.301583496093750000e+03  4.204083496093750000e+03  4.141916503906250000e+03  4.053444335937500000e+03  3.971166748046875000e+03
2.704888916015625000e+03  2.535083251953125000e+03  2.358666748046875000e+03  2.359638916015625000e+03  2.500388916015625000e+03  2.740833251953125000e+03  2.945083251953125000e+03  3.141694335937500000e+03  3.432333251953125000e+03  3.323361083984375000e+03  3.110000000000000000e+03  2.927861083984375000e+03  2.749083251953125000e+03  2.644277832031250000e+03  2.568916748046875000e+03  2.565361083984375000e+03  2.567472167968750000e+03  2.628972167968750000e+03  2.792055664062500000e+03  2.968666748046875000e+03  3.125555664062500000e+03  3.155027832031250000e+03  3.189361083984375000e+03  3.252611083984375000e+03  3.323083251953125000e+03  3.326277832031250000e+03  3.438583251953125000e+03  3.394361083984375000e+03  3.454777832031250000e+03  3.617694335937500000e+03  3.635166748046875000e+03  3.684944335937500000e+03  3.548694335937500000e+03  3.657527832031250000e+03  3.601333251953125000e+03  3.747305664062500000e+03  3.821722167968750000e+03  3.874527832031250000e+03  3.844277832031250000e+03  3.851888916015625000e+03  3.876611083984375000e+03  3.981055664062500000e+03  4.126444335937500000e+03  4.145055664062500000e+03  4.181722167968750000e+03  4.238027832031250000e+03  4.294250000000000000e+03  4.405722167968750000e+03  4.205444335937500000e+03  4.050138916015625000e+03  4.015000000000000000e+03  3.953166748046875000e+03  3.905472167968750000e+03  4.004055664062500000e+03  3.800777832031250000e+03  3.698222167968750000e+03  3.591888916015625000e+03  3.594527832031250000e+03  3.602583251953125000e+03  3.705194335937500000e+03  3.856055664062500000e+03  3.996805664062500000e+03  3.957083251953125000e+03  3.791444335937500000e+03  3.807083251953125000e+03  3.782527832031250000e+03  3.827500000000000000e+03  3.913750000000000000e+03  4.019444335937500000e+03  4.188861328125000000e+03  4.353250000000000000e+03  4.344611328125000000e+03  4.259305664062500000e+03  4.229361328125000000e+03  4.079861083984375000e+03  3.973305664062500000e+03  3.894805664062500000e+03
2.655388916015625000e+03  2.498777832031250000e+03  2.324027832031250000e+03  2.309666748046875000e+03  2.426694335937500000e+03  2.661944335937500000e+03  2.978111083984375000e+03  3.145527832031250000e+03  3.238055664062500000e+03  3.166083251953125000e+03  2.969805664062500000e+03  2.819805664062500000e+03  2.712833251953125000e+03  2.544444335937500000e+03  2.560416748046875000e+03  2.571777832031250000e+03  2.571222167968750000e+03  2.682833251953125000e+03  2.830944335937500000e+03  3.003416748046875000e+03  3.164750000000000000e+03  3.362166748046875000e+03  3.408527832031250000e+03  3.505750000000000000e+03  3.531805664062500000e+03  3.564722167968750000e+03  3.633916748046875000e+03  3.573805664062500000e+03  3.661861083984375000e+03  3.712500000000000000e+03  3.789305664062500000e+03  3.853583251953125000e+03  3.692333251953125000e+03  3.744638916015625000e+03  3.790500000000000000e+03  3.848222167968750000e+03  3.911277832031250000e+03  3.866583251953125000e+03  3.761166748046875000e+03  3.804500000000000000e+03  3.918694335937500000e+03  4.004694335937500000e+03  4.128138671875000000e+03  4.229222167968750000e+03  4.349444335937500000e+03  4.383611328125000000e+03  4.481027832031250000e+03  4.422777832031250000e+03  4.229666503906250000e+03  4.087722167968750000e+03  4.053416748046875000e+03  4.004250000000000000e+03  3.981194335937500000e+03  3.971111083984375000e+03  3.790555664062500000e+03  3.712277832031250000e+03  3.653194335937500000e+03  3.640527832031250000e+03  3.684611083984375000e+03  3.786833251953125000e+03  3.977527832031250000e+03  4.155583496093750000e+03  3.973277832031250000e+03  3.851583251953125000e+03  3.912166748046875000e+03  3.881055664062500000e+03  3.869388916015625000e+03  3.961750000000000000e+03  4.087444335937500000e+03  4.252861328125000000e+03  4.357222167968750000e+03  4.217416503906250000e+03  4.176305664062500000e+03  4.116555664062500000e+03  3.983138916015625000e+03  3.900333251953125000e+03  3.860500000000000000e+03
2.683027832031250000e+03  2.447222167968750000e+03  2.276805664062500000e+03  2.237944335937500000e+03  2.384972167968750000e+03  2.569722167968750000e+03  2.836166748046875000e+03  2.934583251953125000e+03  2.993888916015625000e+03  2.979638916015625000e+03  2.874388916015625000e+03  2.764805664062500000e+03  2.594472167968750000e+03  2.442583251953125000e+03  2.479500000000000000e+03  2.517638916015625000e+03  2.605833251953125000e+03  2.713222167968750000e+03  2.857138916015625000e+03  2.991722167968750000e+03  3.180444335937500000e+03  3.460333251953125000e+03  3.599805664062500000e+03  3.756722167968750000e+03  3.700083251953125000e+03  3.800555664062500000e+03  3.804972167968750000e+03  3.735277832031250000e+03  3.819611083984375000e+03  3.831750000000000000e+03  3.866972167968750000e+03  3.935972167968750000e+03  3.814888916015625000e+03  3.859000000000000000e+03  3.856972167968750000e+03  3.948638916015625000e+03  3.953861083984375000e+03  3.806388916015625000e+03  3.708861083984375000e+03  3.707277832031250000e+03  3.797472167968750000e+03  3.872777832031250000e+03  3.900111083984375000e+03  4.048111083984375000e+03  4.220333496093750000e+03  4.357888671875000000e+03  4.569888671875000000e+03  4.480861328125000000e+03  4.255361328125000000e+03  4.123583496093750000e+03  4.144305664062500000e+03  4.127027832031250000e+03  4.150861328125000000e+03  3.969333251953125000e+03  3.796916748046875000e+03  3.754888916015625000e+03  3.758472167968750000e+03  3.735944335937500000e+03  3.786083251953125000e+03  3.923472167968750000e+03  4.015361083984375000e+03  4.220333496093750000e+03  4.019694335937500000e+03  3.895859619140625000e+03  3.929527832031250000e+03  3.953472167968750000e+03  3.966000000000000000e+03  4.057916748046875000e+03  4.209472167968750000e+03  4.340027832031250000e+03  4.395055664062500000e+03  4.264250000000000000e+03  4.207777832031250000e+03  4.097472167968750000e+03  3.978027832031250000e+03  3.963166748046875000e+03  3.919888916015625000e+03
2.594888916015625000e+03  2.398833251953125000e+03  2.227305664062500000e+03  2.190138916015625000e+03  2.328638916015625000e+03  2.530972167968750000e+03  2.614888916015625000e+03  2.644361083984375000e+03  2.753055664062500000e+03  2.897472167968750000e+03  2.742805664062500000e+03  2.623611083984375000e+03  2.456750000000000000e+03  2.361388916015625000e+03  2.421916748046875000e+03  2.539611083984375000e+03  2.703361083984375000e+03  2.826555664062500000e+03  2.885166748046875000e+03  3.029527832031250000e+03  3.247000000000000000e+03  3.410222167968750000e+03  3.723888916015625000e+03  3.823166748046875000e+03  3.963416748046875000e+03  3.943944335937500000e+03  4.042694335937500000e+03  3.941222167968750000e+03  3.930916748046875000e+03  3.993416748046875000e+03  4.023611083984375000e+03  4.007000000000000000e+03  3.928583251953125000e+03  3.960555664062500000e+03  3.923416748046875000e+03  3.974666748046875000e+03  4.055722167968750000e+03  3.804222167968750000e+03  3.668166748046875000e+03  3.622222167968750000e+03  3.679222167968750000e+03  3.677444335937500000e+03  3.726000000000000000e+03  3.826055664062500000e+03  3.926166748046875000e+03  4.083555664062500000e+03  4.211250000000000000e+03  4.315972167968750000e+03  4.314722167968750000e+03  4.211611328125000000e+03  4.275694335937500000e+03  4.291416503906250000e+03  4.199138671875000000e+03  3.926611083984375000e+03  3.819000000000000000e+03  3.798805664062500000e+03  3.866888916015625000e+03  3.909277832031250000e+03  3.859500000000000000e+03  4.009027832031250000e+03  4.063222167968750000e+03  4.176361328125000000e+03  4.045277832031250000e+03  3.909111083984375000e+03  3.937416748046875000e+03  3.955638916015625000e+03  4.009722167968750000e+03  4.137250000000000000e+03  4.269805664062500000e+03  4.368611328125000000e+03  4.495611328125000000e+03  4.437944335937500000e+03  4.310444335937500000e+03  4.150638671875000000e+03  4.016250000000000000e+03  3.983444335937500000e+03  3.922888916015625000e+03
2.342555664062500000e+03  2.179444335937500000e+03  2.126527832031250000e+03  2.127277832031250000e+03  2.199638916015625000e+03  2.331916748046875000e+03  2.383416748046875000e+03  2.439361083984375000e+03  2.516666748046875000e+03  2.670277832031250000e+03  2.619277832031250000e+03  2.437750000000000000e+03  2.335277832031250000e+03  2.326611083984375000e+03  2.478138916015625000e+03  2.632138916015625000e+03  2.777333251953125000e+03  2.919694335937500000e+03  3.024694335937500000e+03  3.151027832031250000e+03  3.263027832031250000e+03  3.423777832031250000e+03  3.677222167968750000e+03  3.867111083984375000e+03  4.071361083984375000e+03  4.030361083984375000e+03  3.981583251953125000e+03  3.838333251953125000e+03  3.836055664062500000e+03  3.814027832031250000e+03  3.879861083984375000e+03  3.960444335937500000e+03  3.997722167968750000e+03  4.057972167968750000e+03  4.017833251953125000e+03  4.064444335937500000e+03  3.945583251953125000e+03  3.741694335937500000e+03  3.617361083984375000e+03  3.523972167968750000e+03  3.524916748046875000e+03  3.570416748046875000e+03  3.644666748046875000e+03  3.762666748046875000e+03  3.894472167968750000e+03  3.953000000000000000e+03  4.007305664062500000e+03  4.081972167968750000e+03  4.340027832031250000e+03  4.401111328125000000e+03  4.463361328125000000e+03  4.437666503906250000e+03  4.118305664062500000e+03  3.948000000000000000e+03  3.911944335937500000e+03  3.881055664062500000e+03  3.933638916015625000e+03  4.026944335937500000e+03  4.022694335937500000e+03  4.044194335937500000e+03  4.165972167968750000e+03  4.147138671875000000e+03  3.977611083984375000e+03  3.941250000000000000e+03  3.978166748046875000e+03  4.002166748046875000e+03  4.066305664062500000e+03  4.156611328125000000e+03  4.362916503906250000e+03  4.441944335937500000e+03  4.523111328125000000e+03  4.517472167968750000e+03  4.282444335937500000e+03  4.153861328125000000e+03  4.099444335937500000e+03  4.051944335937500000e+03  4.087805664062500000e+03
2.125333251953125000e+03  2.084361083984375000e+03  2.097638916015625000e+03  2.122944335937500000e+03  2.117027832031250000e+03  2.131472167968750000e+03  2.152333251953125000e+03  2.202444335937500000e+03  2.220222167968750000e+03  2.246805664062500000e+03  2.328277832031250000e+03  2.286833251953125000e+03  2.263250000000000000e+03  2.335611083984375000e+03  2.515722167968750000e+03  2.676222167968750000e+03  2.836250000000000000e+03  3.020166748046875000e+03  3.171694335937500000e+03  3.252000000000000000e+03  3.386472167968750000e+03  3.481833251953125000e+03  3.671055664062500000e+03  3.840083251953125000e+03  3.955416748046875000e+03  3.792777832031250000e+03  3.696083251953125000e+03  3.815111083984375000e+03  3.715472167968750000e+03  3.693555664062500000e+03  3.757333251953125000e+03  3.849972167968750000e+03  3.963277832031250000e+03  3.940777832031250000e+03  3.908138916015625000e+03  3.985138916015625000e+03  3.851138916015625000e+03  3.672916748046875000e+03  3.561222167968750000e+03  3.464972167968750000e+03  3.460222167968750000e+03  3.479472167968750000e+03  3.600500000000000000e+03  3.739055664062500000e+03  3.901416748046875000e+03  4.006138916015625000e+03  4.112138671875000000e+03  4.123027832031250000e+03  4.271805664062500000e+03  4.527861328125000000e+03  4.585166503906250000e+03  4.367083496093750000e+03  4.142277832031250000e+03  4.001555664062500000e+03  3.963777832031250000e+03  3.962666748046875000e+03  4.043305664062500000e+03  4.120444335937500000e+03  4.210972167968750000e+03  4.148888671875000000e+03  4.239277832031250000e+03  4.212722167968750000e+03  4.020583251953125000e+03  4.003638916015625000e+03  4.044805664062500000e+03  4.087277832031250000e+03  4.147444335937500000e+03  4.208666503906250000e+03  4.406805664062500000e+03  4.582527832031250000e+03  4.548611328125000000e+03  4.402916503906250000e+03  4.220444335937500000e+03  4.162416503906250000e+03  4.129527832031250000e+03  4.169527832031250000e+03  4.251000000000000000e+03
2.075194335937500000e+03  2.080555664062500000e+03  2.108500000000000000e+03  2.107305664062500000e+03  2.125194335937500000e+03  2.138527832031250000e+03  2.167000000000000000e+03  2.165750000000000000e+03  2.152361083984375000e+03  2.187833251953125000e+03  2.193194335937500000e+03  2.218916748046875000e+03  2.257527832031250000e+03  2.340277832031250000e+03  2.492722167968750000e+03  2.666027832031250000e+03  2.829861083984375000e+03  3.009222167968750000e+03  3.116111083984375000e+03  3.149611083984375000e+03  3.263861083984375000e+03  3.404250000000000000e+03  3.628861083984375000e+03  3.778416748046875000e+03  3.784111083984375000e+03  3.631027832031250000e+03  3.632916748046875000e+03  3.738222167968750000e+03  3.649694335937500000e+03  3.605527832031250000e+03  3.686305664062500000e+03  3.790027832031250000e+03  3.878750000000000000e+03  3.819111083984375000e+03  3.834888916015625000e+03  3.925777832031250000e+03  3.832888916015625000e+03  3.666972167968750000e+03  3.537222167968750000e+03  3.447027832031250000e+03  3.380111083984375000e+03  3.415944335937500000e+03  3.498527832031250000e+03  3.685861083984375000e+03  3.796444335937500000e+03  3.966638916015625000e+03  4.168083496093750000e+03  4.266166503906250000e+03  4.355833496093750000e+03  4.417916503906250000e+03  4.554305664062500000e+03  4.379888671875000000e+03  4.093861083984375000e+03  4.016722167968750000e+03  3.992750000000000000e+03  4.026694335937500000e+03  4.107166503906250000e+03  4.245388671875000000e+03  4.359750000000000000e+03  4.293083496093750000e+03  4.290083496093750000e+03  4.170722167968750000e+03  4.068027832031250000e+03  4.036222167968750000e+03  4.109361328125000000e+03  4.163555664062500000e+03  4.216777832031250000e+03  4.298777832031250000e+03  4.470000000000000000e+03  4.653666503906250000e+03  4.583138671875000000e+03  4.412805664062500000e+03  4.278611328125000000e+03  4.214638671875000000e+03  4.278166503906250000e+03  4.308944335937500000e+03  4.292527832031250000e+03
2.114222167968750000e+03  2.124111083984375000e+03  2.201500000000000000e+03  2.182222167968750000e+03  2.296638916015625000e+03  2.262750000000000000e+03  2.229194335937500000e+03  2.225083251953125000e+03  2.192138916015625000e+03  2.195472167968750000e+03  2.204222167968750000e+03  2.208472167968750000e+03  2.265750000000000000e+03  2.316555664062500000e+03  2.451916748046875000e+03  2.573527832031250000e+03  2.707694335937500000e+03  2.847083251953125000e+03  2.959111083984375000e+03  3.041972167968750000e+03  3.224027832031250000e+03  3.379611083984375000e+03  3.548500000000000000e+03  3.616833251953125000e+03  3.584833251953125000e+03  3.548222167968750000e+03  3.550305664062500000e+03  3.592277832031250000e+03  3.511083251953125000e+03  3.557916748046875000e+03  3.654111083984375000e+03  3.725416748046875000e+03  3.736722167968750000e+03  3.757527832031250000e+03  3.822638916015625000e+03  3.946361083984375000e+03  3.843138916015625000e+03  3.724750000000000000e+03  3.571555664062500000e+03  3.427027832031250000e+03  3.344666748046875000e+03  3.341222167968750000e+03  3.399027832031250000e+03  3.557916748046875000e+03  3.670944335937500000e+03  3.897500000000000000e+03  4.115305664062500000e+03  4.174500000000000000e+03  4.203194335937500000e+03  4.183500000000000000e+03  4.397527832031250000e+03  4.501583496093750000e+03  4.195555664062500000e+03  4.085555664062500000e+03  4.005888916015625000e+03  4.073166748046875000e+03  4.144416503906250000e+03  4.195500000000000000e+03  4.272555664062500000e+03  4.414861328125000000e+03  4.327972167968750000e+03  4.211444335937500000e+03  4.144944335937500000e+03  4.150833496093750000e+03  4.193638671875000000e+03  4.246055664062500000e+03  4.290666503906250000e+03  4.290222167968750000e+03  4.424805664062500000e+03  4.632305664062500000e+03  4.694833496093750000e+03  4.535916503906250000e+03  4.442472167968750000e+03  4.400333496093750000e+03  4.273305664062500000e+03  4.191472167968750000e+03  4.124944335937500000e+03
2.346444335937500000e+03  2.420055664062500000e+03  2.427250000000000000e+03  2.356083251953125000e+03  2.500166748046875000e+03  2.469777832031250000e+03  2.400916748046875000e+03  2.363888916015625000e+03  2.336638916015625000e+03  2.266527832031250000e+03  2.246194335937500000e+03  2.236305664062500000e+03  2.236027832031250000e+03  2.252416748046875000e+03  2.345666748046875000e+03  2.475166748046875000e+03  2.603694335937500000e+03  2.725694335937500000e+03  2.843277832031250000e+03  3.002694335937500000e+03  3.129750000000000000e+03  3.286611083984375000e+03  3.486055664062500000e+03  3.432583251953125000e+03  3.427777832031250000e+03  3.431916748046875000e+03  3.399527832031250000e+03  3.447333251953125000e+03  3.428944335937500000e+03  3.501472167968750000e+03  3.685055664062500000e+03  3.657833251953125000e+03  3.624972167968750000e+03  3.663833251953125000e+03  3.808361083984375000e+03  3.899222167968750000e+03  3.750972167968750000e+03  3.644305664062500000e+03  3.563472167968750000e+03  3.424694335937500000e+03  3.347222167968750000e+03  3.292750000000000000e+03  3.342861083984375000e+03  3.469694335937500000e+03  3.613527832031250000e+03  3.806111083984375000e+03  3.895361083984375000e+03  3.948833251953125000e+03  3.999000000000000000e+03  4.142583496093750000e+03  4.400527832031250000e+03  4.341805664062500000e+03  4.072972167968750000e+03  4.142194335937500000e+03  4.083138916015625000e+03  4.134083496093750000e+03  4.225277832031250000e+03  4.276944335937500000e+03  4.411388671875000000e+03  4.478083496093750000e+03  4.429111328125000000e+03  4.398805664062500000e+03  4.287111328125000000e+03  4.325111328125000000e+03  4.290500000000000000e+03  4.364027832031250000e+03  4.413777832031250000e+03  4.353138671875000000e+03  4.442055664062500000e+03  4.610777832031250000e+03  4.797694335937500000e+03  4.714416503906250000e+03  4.635722167968750000e+03  4.468638671875000000e+03  4.266611328125000000e+03  4.200194335937500000e+03  4.113083496093750000e+03
2.539555664062500000e+03  2.670000000000000000e+03  2.612000000000000000e+03  2.520083251953125000e+03  2.647166748046875000e+03  2.727888916015625000e+03  2.668638916015625000e+03  2.620111083984375000e+03  2.605333251953125000e+03  2.492027832031250000e+03  2.379861083984375000e+03  2.306055664062500000e+03  2.268305664062500000e+03  2.245000000000000000e+03  2.292722167968750000e+03  2.374527832031250000e+03  2.481166748046875000e+03  2.614000000000000000e+03  2.751055664062500000e+03  2.919027832031250000e+03  3.051750000000000000e+03  3.232805664062500000e+03  3.395805664062500000e+03  3.276500000000000000e+03  3.293972167968750000e+03  3.289000000000000000e+03  3.267250000000000000e+03  3.302000000000000000e+03  3.362000000000000000e+03  3.488777832031250000e+03  3.672861083984375000e+03  3.561222167968750000e+03  3.553638916015625000e+03  3.641833251953125000e+03  3.800972167968750000e+03  3.875083251953125000e+03  3.807416748046875000e+03  3.681777832031250000e+03  3.615777832031250000e+03  3.525555664062500000e+03  3.401694335937500000e+03  3.250750000000000000e+03  3.278944335937500000e+03  3.387027832031250000e+03  3.516388916015625000e+03  3.633916748046875000e+03  3.714083251953125000e+03  3.825555664062500000e+03  3.900722167968750000e+03  4.130388671875000000e+03  4.264972167968750000e+03  4.089527832031250000e+03  3.923694335937500000e+03  4.034472167968750000e+03  4.222583496093750000e+03  4.280305664062500000e+03  4.371500000000000000e+03  4.439000000000000000e+03  4.579972167968750000e+03  4.576777832031250000e+03  4.528777832031250000e+03  4.580166503906250000e+03  4.426611328125000000e+03  4.380305664062500000e+03  4.405000000000000000e+03  4.485777832031250000e+03  4.553361328125000000e+03  4.536694335937500000e+03  4.598083496093750000e+03  4.724972167968750000e+03  4.886861328125000000e+03  4.847333496093750000e+03  4.682805664062500000e+03  4.461722167968750000e+03  4.281944335937500000e+03  4.301388671875000000e+03  4.187916503906250000e+03
2.728666748046875000e+03  2.838833251953125000e+03  2.810694335937500000e+03  2.759277832031250000e+03  2.759611083984375000e+03  2.856638916015625000e+03  2.930083251953125000e+03  2.849305664062500000e+03  2.795444335937500000e+03  2.736027832031250000e+03  2.615361083984375000e+03  2.431277832031250000e+03  2.355666748046875000e+03  2.279305664062500000e+03  2.272305664062500000e+03  2.310000000000000000e+03  2.398527832031250000e+03  2.534666748046875000e+03  2.704750000000000000e+03  2.879166748046875000e+03  3.010138916015625000e+03  3.181611083984375000e+03  3.347166748046875000e+03  3.173138916015625000e+03  3.161944335937500000e+03  3.135416748046875000e+03  3.148472167968750000e+03  3.258666748046875000e+03  3.404805664062500000e+03  3.564055664062500000e+03  3.515638916015625000e+03  3.488666748046875000e+03  3.547916748046875000e+03  3.712333251953125000e+03  3.878805664062500000e+03  3.825805664062500000e+03  3.695944335937500000e+03  3.596666748046875000e+03  3.579416748046875000e+03  3.511694335937500000e+03  3.367055664062500000e+03  3.245083251953125000e+03  3.238055664062500000e+03  3.323527832031250000e+03  3.448444335937500000e+03  3.553805664062500000e+03  3.657916748046875000e+03  3.786444335937500000e+03  3.887250000000000000e+03  4.163861328125000000e+03  4.077666748046875000e+03  3.884388916015625000e+03  3.826611083984375000e+03  3.863638916015625000e+03  4.047694335937500000e+03  4.123527832031250000e+03  4.241500000000000000e+03  4.486611328125000000e+03  4.703861328125000000e+03  4.733833496093750000e+03  4.689694335937500000e+03  4.601722167968750000e+03  4.512777832031250000e+03  4.596944335937500000e+03  4.687888671875000000e+03  4.730000000000000000e+03  4.724111328125000000e+03  4.725833496093750000e+03  4.831027832031250000e+03  4.837722167968750000e+03  4.730722167968750000e+03  4.614638671875000000e+03  4.521388671875000000e+03  4.328583496093750000e+03  4.227527832031250000e+03  4.166527832031250000e+03  4.049500000000000000e+03
2.999638916015625000e+03  2.908555664062500000e+03  3.010083251953125000e+03  3.033277832031250000e+03  2.909166748046875000e+03  2.994527832031250000e+03  3.076611083984375000e+03  3.049166748046875000e+03  2.942472167968750000e+03  2.823805664062500000e+03  2.647611083984375000e+03  2.515861083984375000e+03  2.444638916015625000e+03  2.342916748046875000e+03  2.275888916015625000e+03  2.273694335937500000e+03  2.345055664062500000e+03  2.452805664062500000e+03  2.649944335937500000e+03  2.787694335937500000e+03  2.948666748046875000e+03  3.122250000000000000e+03  3.167916748046875000e+03  3.051250000000000000e+03  3.012638916015625000e+03  3.006222167968750000e+03  3.129083251953125000e+03  3.293388916015625000e+03  3.448805664062500000e+03  3.529416748046875000e+03  3.433277832031250000e+03  3.469500000000000000e+03  3.632500000000000000e+03  3.754138916015625000e+03  3.842138916015625000e+03  3.746500000000000000e+03  3.606027832031250000e+03  3.496250000000000000e+03  3.452722167968750000e+03  3.484222167968750000e+03  3.312055664062500000e+03  3.196111083984375000e+03  3.227611083984375000e+03  3.301666748046875000e+03  3.457444335937500000e+03  3.579972167968750000e+03  3.680416748046875000e+03  3.809527832031250000e+03  4.002194335937500000e+03  4.162666503906250000e+03  3.926055664062500000e+03  3.787638916015625000e+03  3.778111083984375000e+03  3.813222167968750000e+03  3.876305664062500000e+03  3.977666748046875000e+03  4.148666503906250000e+03  4.380000000000000000e+03  4.606722167968750000e+03  4.771694335937500000e+03  4.861888671875000000e+03  4.710722167968750000e+03  4.662777832031250000e+03  4.766361328125000000e+03  4.845222167968750000e+03  4.975277832031250000e+03  4.893611328125000000e+03  4.957166503906250000e+03  4.831916503906250000e+03  4.660583496093750000e+03  4.513166503906250000e+03  4.406194335937500000e+03  4.314861328125000000e+03  4.189861328125000000e+03  4.146500000000000000e+03  4.097944335937500000e+03  4.045333251953125000e+03
3.139888916015625000e+03  3.116777832031250000e+03  3.235555664062500000e+03  3.137722167968750000e+03  3.101472167968750000e+03  3.204444335937500000e+03  3.244750000000000000e+03  3.091722167968750000e+03  3.018166748046875000e+03  2.891194335937500000e+03  2.726833251953125000e+03  2.604722167968750000e+03  2.494305664062500000e+03  2.397805664062500000e+03  2.297555664062500000e+03  2.263127929687500000e+03  2.295583251953125000e+03  2.392250000000000000e+03  2.529361083984375000e+03  2.665194335937500000e+03  2.850388916015625000e+03  3.006500000000000000e+03  2.997083251953125000e+03  2.893388916015625000e+03  2.843166748046875000e+03  2.977166748046875000e+03  3.144166748046875000e+03  3.346194335937500000e+03  3.476305664062500000e+03  3.429111083984375000e+03  3.414694335937500000e+03  3.546833251953125000e+03  3.647027832031250000e+03  3.663277832031250000e+03  3.771888916015625000e+03  3.754750000000000000e+03  3.612500000000000000e+03  3.491833251953125000e+03  3.382750000000000000e+03  3.314472167968750000e+03  3.211194335937500000e+03  3.176277832031250000e+03  3.243083251953125000e+03  3.358388916015625000e+03  3.521277832031250000e+03  3.723027832031250000e+03  3.815416748046875000e+03  3.960555664062500000e+03  4.223611328125000000e+03  4.057527832031250000e+03  3.855805664062500000e+03  3.732083251953125000e+03  3.734916748046875000e+03  3.776055664062500000e+03  3.842944335937500000e+03  3.946138916015625000e+03  4.117750000000000000e+03  4.375555664062500000e+03  4.486611328125000000e+03  4.620194335937500000e+03  4.689611328125000000e+03  4.835500000000000000e+03  4.853166503906250000e+03  4.934666503906250000e+03  5.069166503906250000e+03  5.131138671875000000e+03  5.096722167968750000e+03  5.024861328125000000e+03  4.736250000000000000e+03  4.546555664062500000e+03  4.385777832031250000e+03  4.297694335937500000e+03  4.225277832031250000e+03  4.186111328125000000e+03  4.155277832031250000e+03  4.102361328125000000e+03  4.068861083984375000e+03
3.259611083984375000e+03  3.303027832031250000e+03  3.393777832031250000e+03  3.284750000000000000e+03  3.350083251953125000e+03  3.437888916015625000e+03  3.294166748046875000e+03  3.134250000000000000e+03  3.085861083984375000e+03  2.945305664062500000e+03  2.818027832031250000e+03  2.682777832031250000e+03  2.611861083984375000e+03  2.490388916015625000e+03  2.354416748046875000e+03  2.284333251953125000e+03  2.266555664062500000e+03  2.316027832031250000e+03  2.462916748046875000e+03  2.607166748046875000e+03  2.774194335937500000e+03  2.854250000000000000e+03  2.796944335937500000e+03  2.741888916015625000e+03  2.803694335937500000e+03  2.975388916015625000e+03  3.217277832031250000e+03  3.436055664062500000e+03  3.350361083984375000e+03  3.325277832031250000e+03  3.411277832031250000e+03  3.517916748046875000e+03  3.537638916015625000e+03  3.636250000000000000e+03  3.785944335937500000e+03  3.841972167968750000e+03  3.701194335937500000e+03  3.542027832031250000e+03  3.404194335937500000e+03  3.293527832031250000e+03  3.162166748046875000e+03  3.158444335937500000e+03  3.259222167968750000e+03  3.417388916015625000e+03  3.595888916015625000e+03  3.700111083984375000e+03  3.872805664062500000e+03  4.027888916015625000e+03  4.244416503906250000e+03  3.980333251953125000e+03  3.809111083984375000e+03  3.691055664062500000e+03  3.696194335937500000e+03  3.731111083984375000e+03  3.766500000000000000e+03  3.890194335937500000e+03  4.117138671875000000e+03  4.252027832031250000e+03  4.225472167968750000e+03  4.363638671875000000e+03  4.525222167968750000e+03  4.536305664062500000e+03  4.585277832031250000e+03  4.718888671875000000e+03  4.915388671875000000e+03  5.051416503906250000e+03  5.143027832031250000e+03  5.055250000000000000e+03  4.788333496093750000e+03  4.597083496093750000e+03  4.419750000000000000e+03  4.328722167968750000e+03  4.254111328125000000e+03  4.224750000000000000e+03  4.175472167968750000e+03  4.140833496093750000e+03  4.122361328125000000e+03
3.312361083984375000e+03  3.519333251953125000e+03  3.528250000000000000e+03  3.658027832031250000e+03  3.659777832031250000e+03  3.540694335937500000e+03  3.379194335937500000e+03  3.181305664062500000e+03  3.155527832031250000e+03  3.079305664062500000e+03  2.934333251953125000e+03  2.857638916015625000e+03  2.747388916015625000e+03  2.620500000000000000e+03  2.474666748046875000e+03  2.346694335937500000e+03  2.278611083984375000e+03  2.270666748046875000e+03  2.350027832031250000e+03  2.468555664062500000e+03  2.637611083984375000e+03  2.685472167968750000e+03  2.610444335937500000e+03  2.693972167968750000e+03  2.870972167968750000e+03  3.008388916015625000e+03  3.221694335937500000e+03  3.286388916015625000e+03  3.194388916015625000e+03  3.227694335937500000e+03  3.348111083984375000e+03  3.436388916015625000e+03  3.494361083984375000e+03  3.597027832031250000e+03  3.729527832031250000e+03  3.799333251953125000e+03  3.662166748046875000e+03  3.523388916015625000e+03  3.364750000000000000e+03  3.236916748046875000e+03  3.143833251953125000e+03  3.182500000000000000e+03  3.305305664062500000e+03  3.460694335937500000e+03  3.677555664062500000e+03  3.852777832031250000e+03  3.935805664062500000e+03  4.120611328125000000e+03  4.258361328125000000e+03  4.026000000000000000e+03  3.777472167968750000e+03  3.663305664062500000e+03  3.649583251953125000e+03  3.648833251953125000e+03  3.676194335937500000e+03  3.847083251953125000e+03  3.999555664062500000e+03  3.997861083984375000e+03  4.068500000000000000e+03  4.332805664062500000e+03  4.430833496093750000e+03  4.242250000000000000e+03  4.238888671875000000e+03  4.464833496093750000e+03  4.686972167968750000e+03  4.829055664062500000e+03  4.940972167968750000e+03  5.079666503906250000e+03  4.954027832031250000e+03  4.733361328125000000e+03  4.607166503906250000e+03  4.493750000000000000e+03  4.378000000000000000e+03  4.352916503906250000e+03  4.353277832031250000e+03  4.357555664062500000e+03  4.341805664062500000e+03
3.416972167968750000e+03  3.684083251953125000e+03  3.754111083984375000e+03  3.819388916015625000e+03  3.792750000000000000e+03  3.712472167968750000e+03  3.510638916015625000e+03  3.259250000000000000e+03  3.209638916015625000e+03  3.089027832031250000e+03  3.008166748046875000e+03  2.987888916015625000e+03  2.871638916015625000e+03  2.713388916015625000e+03  2.579583251953125000e+03  2.418916748046875000e+03  2.315666748046875000e+03  2.284722167968750000e+03  2.296138916015625000e+03  2.367027832031250000e+03  2.502944335937500000e+03  2.545027832031250000e+03  2.543194335937500000e+03  2.738944335937500000e+03  2.984750000000000000e+03  3.152055664062500000e+03  3.155750000000000000e+03  3.097388916015625000e+03  3.074777832031250000e+03  3.193611083984375000e+03  3.362277832031250000e+03  3.474527832031250000e+03  3.596194335937500000e+03  3.689750000000000000e+03  3.783166748046875000e+03  3.770194335937500000e+03  3.628611083984375000e+03  3.454138916015625000e+03  3.308611083984375000e+03  3.200805664062500000e+03  3.137838134765625000e+03  3.199250000000000000e+03  3.342333251953125000e+03  3.471388916015625000e+03  3.670138916015625000e+03  3.873861083984375000e+03  4.067555664062500000e+03  4.201722167968750000e+03  4.162944335937500000e+03  3.980972167968750000e+03  3.810027832031250000e+03  3.648500000000000000e+03  3.587888916015625000e+03  3.581138916015625000e+03  3.624805664062500000e+03  3.772972167968750000e+03  3.847388916015625000e+03  3.917333251953125000e+03  4.063861083984375000e+03  4.308694335937500000e+03  4.185305664062500000e+03  4.129388671875000000e+03  4.126277832031250000e+03  4.338111328125000000e+03  4.471750000000000000e+03  4.587694335937500000e+03  4.724777832031250000e+03  4.869750000000000000e+03  5.081083496093750000e+03  4.906194335937500000e+03  4.764277832031250000e+03  4.629472167968750000e+03  4.574194335937500000e+03  4.552888671875000000e+03  4.558805664062500000e+03  4.464583496093750000e+03  4.294222167968750000e+03
3.538583251953125000e+03  3.725416748046875000e+03  3.929694335937500000e+03  4.033388916015625000e+03  3.968055664062500000e+03  3.772222167968750000e+03  3.588027832031250000e+03  3.416222167968750000e+03  3.272305664062500000e+03  3.180916748046875000e+03  3.137055664062500000e+03  3.052305664062500000e+03  2.910888916015625000e+03  2.764333251953125000e+03  2.643777832031250000e+03  2.487055664062500000e+03  2.373750000000000000e+03  2.291861083984375000e+03  2.294138916015625000e+03  2.317388916015625000e+03  2.360500000000000000e+03  2.421527832031250000e+03  2.570166748046875000e+03  2.775916748046875000e+03  3.019722167968750000e+03  3.072000000000000000e+03  2.968916748046875000e+03  2.922416748046875000e+03  3.083583251953125000e+03  3.241250000000000000e+03  3.422416748046875000e+03  3.583388916015625000e+03  3.611805664062500000e+03  3.598194335937500000e+03  3.668083251953125000e+03  3.689500000000000000e+03  3.580416748046875000e+03  3.393916748046875000e+03  3.249388916015625000e+03  3.160722167968750000e+03  3.134444335937500000e+03  3.231055664062500000e+03  3.370111083984375000e+03  3.565972167968750000e+03  3.735805664062500000e+03  3.860333251953125000e+03  4.038472167968750000e+03  4.192416503906250000e+03  4.037361083984375000e+03  3.933666748046875000e+03  3.833722167968750000e+03  3.664916748046875000e+03  3.570361083984375000e+03  3.556722167968750000e+03  3.611972167968750000e+03  3.720277832031250000e+03  3.818166748046875000e+03  3.912000000000000000e+03  4.092694335937500000e+03  4.186361328125000000e+03  4.032750000000000000e+03  4.018000000000000000e+03  4.003888916015625000e+03  4.120500000000000000e+03  4.272083496093750000e+03  4.406638671875000000e+03  4.501833496093750000e+03  4.654250000000000000e+03  4.885416503906250000e+03  5.052222167968750000e+03  4.893833496093750000e+03  4.810833496093750000e+03  4.767027832031250000e+03  4.762527832031250000e+03  4.655388671875000000e+03  4.454638671875000000e+03  4.265361328125000000e+03
3.705416748046875000e+03  3.856861083984375000e+03  4.070333251953125000e+03  4.209250000000000000e+03  4.061611083984375000e+03  3.826722167968750000e+03  3.628472167968750000e+03  3.520138916015625000e+03  3.414083251953125000e+03  3.344555664062500000e+03  3.284944335937500000e+03  3.117638916015625000e+03  2.988527832031250000e+03  2.881916748046875000e+03  2.663222167968750000e+03  2.526388916015625000e+03  2.507944335937500000e+03  2.402305664062500000e+03  2.306638916015625000e+03  2.316027832031250000e+03  2.339805664062500000e+03  2.404444335937500000e+03  2.577722167968750000e+03  2.766305664062500000e+03  2.889888916015625000e+03  2.895888916015625000e+03  2.792305664062500000e+03  2.894027832031250000e+03  3.137222167968750000e+03  3.353277832031250000e+03  3.448027832031250000e+03  3.456527832031250000e+03  3.431666748046875000e+03  3.434888916015625000e+03  3.575111083984375000e+03  3.729138916015625000e+03  3.603583251953125000e+03  3.385722167968750000e+03  3.208777832031250000e+03  3.100694335937500000e+03  3.136555664062500000e+03  3.300083251953125000e+03  3.361277832031250000e+03  3.514416748046875000e+03  3.650805664062500000e+03  3.809277832031250000e+03  3.982583251953125000e+03  4.139388671875000000e+03  3.957500000000000000e+03  3.817888916015625000e+03  3.710277832031250000e+03  3.642472167968750000e+03  3.537611083984375000e+03  3.521277832031250000e+03  3.582611083984375000e+03  3.687083251953125000e+03  3.872333251953125000e+03  3.991000000000000000e+03  4.039055664062500000e+03  4.006805664062500000e+03  3.950250000000000000e+03  3.935027832031250000e+03  3.935833251953125000e+03  4.024444335937500000e+03  4.095972167968750000e+03  4.210333496093750000e+03  4.375972167968750000e+03  4.612722167968750000e+03  4.862777832031250000e+03  4.987666503906250000e+03  4.960444335937500000e+03  4.793250000000000000e+03  4.655027832031250000e+03  4.689388671875000000e+03  4.695944335937500000e+03  4.485694335937500000e+03  4.334361328125000000e+03
3.826972167968750000e+03  3.956555664062500000e+03  4.169722167968750000e+03  4.215166503906250000e+03  4.014777832031250000e+03  3.840055664062500000e+03  3.696888916015625000e+03  3.617250000000000000e+03  3.479194335937500000e+03  3.353333251953125000e+03  3.236916748046875000e+03  3.077222167968750000e+03  2.931055664062500000e+03  2.790111083984375000e+03  2.639194335937500000e+03  2.709916748046875000e+03  2.673000000000000000e+03  2.538916748046875000e+03  2.422944335937500000e+03  2.319194335937500000e+03  2.321944335937500000e+03  2.340916748046875000e+03  2.463611083984375000e+03  2.730916748046875000e+03  2.703638916015625000e+03  2.686027832031250000e+03  2.787194335937500000e+03  2.943166748046875000e+03  3.123388916015625000e+03  3.282055664062500000e+03  3.343916748046875000e+03  3.321027832031250000e+03  3.282444335937500000e+03  3.326138916015625000e+03  3.537583251953125000e+03  3.626055664062500000e+03  3.534972167968750000e+03  3.310250000000000000e+03  3.132111083984375000e+03  3.057777832031250000e+03  3.135666748046875000e+03  3.332305664062500000e+03  3.523194335937500000e+03  3.557194335937500000e+03  3.646861083984375000e+03  3.756250000000000000e+03  3.942388916015625000e+03  4.116000000000000000e+03  3.941611083984375000e+03  3.784194335937500000e+03  3.686416748046875000e+03  3.605166748046875000e+03  3.509277832031250000e+03  3.489694335937500000e+03  3.516083251953125000e+03  3.705388916015625000e+03  3.798027832031250000e+03  3.791833251953125000e+03  3.764972167968750000e+03  3.817250000000000000e+03  3.831583251953125000e+03  3.818416748046875000e+03  3.812194335937500000e+03  3.906222167968750000e+03  3.936861083984375000e+03  4.078777832031250000e+03  4.331333496093750000e+03  4.491527832031250000e+03  4.589666503906250000e+03  4.772638671875000000e+03  4.899194335937500000e+03  4.725944335937500000e+03  4.615888671875000000e+03  4.584000000000000000e+03  4.586805664062500000e+03  4.494416503906250000e+03  4.305916503906250000e+03
3.917666748046875000e+03  4.115277832031250000e+03  4.298194335937500000e+03  4.201722167968750000e+03  3.945000000000000000e+03  3.736833251953125000e+03  3.551666748046875000e+03  3.448083251953125000e+03  3.358277832031250000e+03  3.225638916015625000e+03  3.124972167968750000e+03  2.958138916015625000e+03  2.828722167968750000e+03  2.747611083984375000e+03  2.807250000000000000e+03  2.884444335937500000e+03  2.804111083984375000e+03  2.644944335937500000e+03  2.519361083984375000e+03  2.402194335937500000e+03  2.360166748046875000e+03  2.316317871093750000e+03  2.386472167968750000e+03  2.513527832031250000e+03  2.551444335937500000e+03  2.651777832031250000e+03  2.797750000000000000e+03  2.975472167968750000e+03  3.122916748046875000e+03  3.176111083984375000e+03  3.213777832031250000e+03  3.183916748046875000e+03  3.172333251953125000e+03  3.282333251953125000e+03  3.484277832031250000e+03  3.488388916015625000e+03  3.479750000000000000e+03  3.295388916015625000e+03  3.100777832031250000e+03  3.041333251953125000e+03  3.147527832031250000e+03  3.382833251953125000e+03  3.505861083984375000e+03  3.668888916015625000e+03  3.742666748046875000e+03  3.777222167968750000e+03  3.897555664062500000e+03  4.073361083984375000e+03  4.063222167968750000e+03  3.886138916015625000e+03  3.819083251953125000e+03  3.693416748046875000e+03  3.519305664062500000e+03  3.469083251953125000e+03  3.454833251953125000e+03  3.537027832031250000e+03  3.635500000000000000e+03  3.616416748046875000e+03  3.601805664062500000e+03  3.629444335937500000e+03  3.729666748046875000e+03  3.754805664062500000e+03  3.713250000000000000e+03  3.753277832031250000e+03  3.862305664062500000e+03  3.967972167968750000e+03  4.141277832031250000e+03  4.248305664062500000e+03  4.404500000000000000e+03  4.542916503906250000e+03  4.668305664062500000e+03  4.771888671875000000e+03  4.649972167968750000e+03  4.500916503906250000e+03  4.321555664062500000e+03  4.229444335937500000e+03  4.153027832031250000e+03
4.062583251953125000e+03  4.260777832031250000e+03  4.264861328125000000e+03  3.953222167968750000e+03  3.794138916015625000e+03  3.634250000000000000e+03  3.503111083984375000e+03  3.366194335937500000e+03  3.217527832031250000e+03  3.098611083984375000e+03  2.975888916015625000e+03  2.871111083984375000e+03  2.814944335937500000e+03  2.876111083984375000e+03  3.022861083984375000e+03  3.096361083984375000e+03  2.914666748046875000e+03  2.773944335937500000e+03  2.635500000000000000e+03  2.497083251953125000e+03  2.403027832031250000e+03  2.331250000000000000e+03  2.341694335937500000e+03  2.412888916015625000e+03  2.571805664062500000e+03  2.768277832031250000e+03  2.867694335937500000e+03  2.967055664062500000e+03  2.977250000000000000e+03  3.005361083984375000e+03  3.054388916015625000e+03  3.062305664062500000e+03  3.122250000000000000e+03  3.260138916015625000e+03  3.360638916015625000e+03  3.311027832031250000e+03  3.370694335937500000e+03  3.275027832031250000e+03  3.085416748046875000e+03  3.025861083984375000e+03  3.163000000000000000e+03  3.384277832031250000e+03  3.550583251953125000e+03  3.598083251953125000e+03  3.665333251953125000e+03  3.784694335937500000e+03  3.890638916015625000e+03  4.069000000000000000e+03  4.015277832031250000e+03  4.053888916015625000e+03  3.944055664062500000e+03  3.741277832031250000e+03  3.559055664062500000e+03  3.459166748046875000e+03  3.403000000000000000e+03  3.412833251953125000e+03  3.432916748046875000e+03  3.536444335937500000e+03  3.496138916015625000e+03  3.566722167968750000e+03  3.617138916015625000e+03  3.665722167968750000e+03  3.654250000000000000e+03  3.697222167968750000e+03  3.765388916015625000e+03  3.926888916015625000e+03  4.005972167968750000e+03  4.083638916015625000e+03  4.238083496093750000e+03  4.320305664062500000e+03  4.423083496093750000e+03  4.490861328125000000e+03  4.480388671875000000e+03  4.355111328125000000e+03  4.195972167968750000e+03  4.062166748046875000e+03  3.958861083984375000e+03
4.038583251953125000e+03  4.279055664062500000e+03  4.167166503906250000e+03  3.959527832031250000e+03  3.828055664062500000e+03  3.665388916015625000e+03  3.585944335937500000e+03  3.417638916015625000e+03  3.272777832031250000e+03  3.058777832031250000e+03  2.939861083984375000e+03  2.891638916015625000e+03  2.972888916015625000e+03  3.091694335937500000e+03  3.218500000000000000e+03  3.294805664062500000e+03  3.151861083984375000e+03  2.908500000000000000e+03  2.741750000000000000e+03  2.647861083984375000e+03  2.523250000000000000e+03  2.361027832031250000e+03  2.337000000000000000e+03  2.358972167968750000e+03  2.474666748046875000e+03  2.628777832031250000e+03  2.748888916015625000e+03  2.790722167968750000e+03  2.818861083984375000e+03  2.882833251953125000e+03  2.908083251953125000e+03  2.922444335937500000e+03  3.053638916015625000e+03  3.187222167968750000e+03  3.194750000000000000e+03  3.145833251953125000e+03  3.306361083984375000e+03  3.212194335937500000e+03  3.039055664062500000e+03  3.016000000000000000e+03  3.210333251953125000e+03  3.438638916015625000e+03  3.546555664062500000e+03  3.655638916015625000e+03  3.665833251953125000e+03  3.767722167968750000e+03  3.867111083984375000e+03  3.916388916015625000e+03  3.873388916015625000e+03  3.937833251953125000e+03  3.953361083984375000e+03  3.786111083984375000e+03  3.620722167968750000e+03  3.514111083984375000e+03  3.455250000000000000e+03  3.365750000000000000e+03  3.352972167968750000e+03  3.431138916015625000e+03  3.436611083984375000e+03  3.457972167968750000e+03  3.530444335937500000e+03  3.562305664062500000e+03  3.615555664062500000e+03  3.650750000000000000e+03  3.733500000000000000e+03  3.885027832031250000e+03  3.988388916015625000e+03  4.041277832031250000e+03  4.144361328125000000e+03  4.208472167968750000e+03  4.256027832031250000e+03  4.324555664062500000e+03  4.355361328125000000e+03  4.356861328125000000e+03  4.177027832031250000e+03  3.938500000000000000e+03  3.889666748046875000e+03
4.092916748046875000e+03  4.152361328125000000e+03  3.987833251953125000e+03  3.854611083984375000e+03  3.753444335937500000e+03  3.738472167968750000e+03  3.584750000000000000e+03  3.445000000000000000e+03  3.287472167968750000e+03  3.037416748046875000e+03  2.934527832031250000e+03  2.967166748046875000e+03  3.158444335937500000e+03  3.394944335937500000e+03  3.410222167968750000e+03  3.451583251953125000e+03  3.263083251953125000e+03  3.014750000000000000e+03  2.831277832031250000e+03  2.821916748046875000e+03  2.702388916015625000e+03  2.498416748046875000e+03  2.397750000000000000e+03  2.363777832031250000e+03  2.363277832031250000e+03  2.469083251953125000e+03  2.564277832031250000e+03  2.633361083984375000e+03  2.666055664062500000e+03  2.733222167968750000e+03  2.763833251953125000e+03  2.854083251953125000e+03  2.961111083984375000e+03  3.035805664062500000e+03  3.075055664062500000e+03  3.033194335937500000e+03  3.250138916015625000e+03  3.189972167968750000e+03  2.990416748046875000e+03  3.004138916015625000e+03  3.248305664062500000e+03  3.417388916015625000e+03  3.556083251953125000e+03  3.604083251953125000e+03  3.588666748046875000e+03  3.679527832031250000e+03  3.812416748046875000e+03  3.884916748046875000e+03  3.728083251953125000e+03  3.709277832031250000e+03  3.838444335937500000e+03  3.879805664062500000e+03  3.728111083984375000e+03  3.604694335937500000e+03  3.498083251953125000e+03  3.376222167968750000e+03  3.320805664062500000e+03  3.341305664062500000e+03  3.392305664062500000e+03  3.449638916015625000e+03  3.506027832031250000e+03  3.564805664062500000e+03  3.595527832031250000e+03  3.632750000000000000e+03  3.757027832031250000e+03  3.855916748046875000e+03  3.950444335937500000e+03  4.074138916015625000e+03  4.239250000000000000e+03  4.315694335937500000e+03  4.332472167968750000e+03  4.325472167968750000e+03  4.239638671875000000e+03  4.111361328125000000e+03  4.035194335937500000e+03  3.889027832031250000e+03  3.841055664062500000e+03
4.145666503906250000e+03  3.944805664062500000e+03  3.821916748046875000e+03  3.739944335937500000e+03  3.649611083984375000e+03  3.564666748046875000e+03  3.512416748046875000e+03  3.392250000000000000e+03  3.268277832031250000e+03  3.100444335937500000e+03  3.034694335937500000e+03  3.085222167968750000e+03  3.346277832031250000e+03  3.562472167968750000e+03  3.611888916015625000e+03  3.596222167968750000e+03  3.378138916015625000e+03  3.135722167968750000e+03  2.970083251953125000e+03  2.968111083984375000e+03  2.828388916015625000e+03  2.610611083984375000e+03  2.463555664062500000e+03  2.391027832031250000e+03  2.363194335937500000e+03  2.365388916015625000e+03  2.433277832031250000e+03  2.498805664062500000e+03  2.548388916015625000e+03  2.601416748046875000e+03  2.642083251953125000e+03  2.717805664062500000e+03  2.749861083984375000e+03  2.846777832031250000e+03  2.899861083984375000e+03  2.984027832031250000e+03  3.187750000000000000e+03  3.101750000000000000e+03  2.960222167968750000e+03  2.999916748046875000e+03  3.217444335937500000e+03  3.372138916015625000e+03  3.418944335937500000e+03  3.470472167968750000e+03  3.606416748046875000e+03  3.729250000000000000e+03  3.876916748046875000e+03  3.778027832031250000e+03  3.640750000000000000e+03  3.619888916015625000e+03  3.759666748046875000e+03  3.923138916015625000e+03  3.760888916015625000e+03  3.638361083984375000e+03  3.560250000000000000e+03  3.407972167968750000e+03  3.288861083984375000e+03  3.333000000000000000e+03  3.377972167968750000e+03  3.415194335937500000e+03  3.476750000000000000e+03  3.538027832031250000e+03  3.551888916015625000e+03  3.567333251953125000e+03  3.620500000000000000e+03  3.753138916015625000e+03  3.894805664062500000e+03  4.073305664062500000e+03  4.249527832031250000e+03  4.293638671875000000e+03  4.335777832031250000e+03  4.322472167968750000e+03  4.137500000000000000e+03  4.007805664062500000e+03  3.927916748046875000e+03  3.860500000000000000e+03  3.830666748046875000e+03
4.126527832031250000e+03  3.934361083984375000e+03  3.782222167968750000e+03  3.712583251953125000e+03  3.667555664062500000e+03  3.571611083984375000e+03  3.519305664062500000e+03  3.428972167968750000e+03  3.306861083984375000e+03  3.162972167968750000e+03  3.152527832031250000e+03  3.251111083984375000e+03  3.524833251953125000e+03  3.670777832031250000e+03  3.781861083984375000e+03  3.585305664062500000e+03  3.345555664062500000e+03  3.237833251953125000e+03  3.127944335937500000e+03  2.967000000000000000e+03  2.793472167968750000e+03  2.648083251953125000e+03  2.569333251953125000e+03  2.456361083984375000e+03  2.399055664062500000e+03  2.376166748046875000e+03  2.364055664062500000e+03  2.378444335937500000e+03  2.424888916015625000e+03  2.472583251953125000e+03  2.521888916015625000e+03  2.581861083984375000e+03  2.623750000000000000e+03  2.689694335937500000e+03  2.750222167968750000e+03  2.924916748046875000e+03  3.099944335937500000e+03  3.004555664062500000e+03  2.918444335937500000e+03  2.990111083984375000e+03  3.151638916015625000e+03  3.272750000000000000e+03  3.379888916015625000e+03  3.492333251953125000e+03  3.623055664062500000e+03  3.751388916015625000e+03  3.912472167968750000e+03  3.793861083984375000e+03  3.603972167968750000e+03  3.567055664062500000e+03  3.777138916015625000e+03  3.773555664062500000e+03  3.667666748046875000e+03  3.557083251953125000e+03  3.419166748046875000e+03  3.310138916015625000e+03  3.273972167968750000e+03  3.317750000000000000e+03  3.340666748046875000e+03  3.368333251953125000e+03  3.435805664062500000e+03  3.514333251953125000e+03  3.578666748046875000e+03  3.586027832031250000e+03  3.637000000000000000e+03  3.708111083984375000e+03  3.835527832031250000e+03  3.990861083984375000e+03  4.145027832031250000e+03  4.298833496093750000e+03  4.393527832031250000e+03  4.330222167968750000e+03  4.138444335937500000e+03  4.026972167968750000e+03  3.936305664062500000e+03  3.866083251953125000e+03  3.824972167968750000e+03
4.187333496093750000e+03  3.984277832031250000e+03  3.865138916015625000e+03  3.792194335937500000e+03  3.748694335937500000e+03  3.649694335937500000e+03  3.585583251953125000e+03  3.475388916015625000e+03  3.370722167968750000e+03  3.320444335937500000e+03  3.283111083984375000e+03  3.382555664062500000e+03  3.628833251953125000e+03  3.837722167968750000e+03  3.842805664062500000e+03  3.615972167968750000e+03  3.457027832031250000e+03  3.304722167968750000e+03  3.108111083984375000e+03  2.941305664062500000e+03  2.822388916015625000e+03  2.808305664062500000e+03  2.672583251953125000e+03  2.567833251953125000e+03  2.452361083984375000e+03  2.437861083984375000e+03  2.413666748046875000e+03  2.396833251953125000e+03  2.384916748046875000e+03  2.413555664062500000e+03  2.433277832031250000e+03  2.485833251953125000e+03  2.536555664062500000e+03  2.587138916015625000e+03  2.703027832031250000e+03  2.868888916015625000e+03  3.013722167968750000e+03  2.892194335937500000e+03  2.913972167968750000e+03  3.070972167968750000e+03  3.255305664062500000e+03  3.378888916015625000e+03  3.568777832031250000e+03  3.479916748046875000e+03  3.497472167968750000e+03  3.573416748046875000e+03  3.698805664062500000e+03  3.726750000000000000e+03  3.554055664062500000e+03  3.503333251953125000e+03  3.644972167968750000e+03  3.688305664062500000e+03  3.525333251953125000e+03  3.430277832031250000e+03  3.309194335937500000e+03  3.225805664062500000e+03  3.274666748046875000e+03  3.297944335937500000e+03  3.374166748046875000e+03  3.449888916015625000e+03  3.533888916015625000e+03  3.617916748046875000e+03  3.653138916015625000e+03  3.734250000000000000e+03  3.750722167968750000e+03  3.773777832031250000e+03  3.874944335937500000e+03  4.014416748046875000e+03  4.141138671875000000e+03  4.282111328125000000e+03  4.447166503906250000e+03  4.436027832031250000e+03  4.237611328125000000e+03  4.172583496093750000e+03  4.052722167968750000e+03  3.952777832031250000e+03  3.974833251953125000e+03
4.214972167968750000e+03  4.036527832031250000e+03  3.967277832031250000e+03  3.913750000000000000e+03  3.805972167968750000e+03  3.675944335937500000e+03  3.616277832031250000e+03  3.530888916015625000e+03  3.431583251953125000e+03  3.424583251953125000e+03  3.370194335937500000e+03  3.460833251953125000e+03  3.655055664062500000e+03  3.850250000000000000e+03  3.954972167968750000e+03  3.707083251953125000e+03  3.483333251953125000e+03  3.307666748046875000e+03  3.155500000000000000e+03  3.053527832031250000e+03  3.019305664062500000e+03  2.920222167968750000e+03  2.811611083984375000e+03  2.684833251953125000e+03  2.579444335937500000e+03  2.580666748046875000e+03  2.557750000000000000e+03  2.528250000000000000e+03  2.462000000000000000e+03  2.429500000000000000e+03  2.408333251953125000e+03  2.433861083984375000e+03  2.479000000000000000e+03  2.548861083984375000e+03  2.659666748046875000e+03  2.812138916015625000e+03  2.838555664062500000e+03  2.851138916015625000e+03  2.962027832031250000e+03  3.120916748046875000e+03  3.314694335937500000e+03  3.453527832031250000e+03  3.551027832031250000e+03  3.356111083984375000e+03  3.345444335937500000e+03  3.426861083984375000e+03  3.502750000000000000e+03  3.504361083984375000e+03  3.420861083984375000e+03  3.448138916015625000e+03  3.624916748046875000e+03  3.599555664062500000e+03  3.449750000000000000e+03  3.313194335937500000e+03  3.215500000000000000e+03  3.183638916015625000e+03  3.245666748046875000e+03  3.276194335937500000e+03  3.422222167968750000e+03  3.544861083984375000e+03  3.591166748046875000e+03  3.613111083984375000e+03  3.754972167968750000e+03  3.864111083984375000e+03  3.880638916015625000e+03  3.905777832031250000e+03  4.051805664062500000e+03  4.124611328125000000e+03  4.311500000000000000e+03  4.358472167968750000e+03  4.481972167968750000e+03  4.483250000000000000e+03  4.391333496093750000e+03  4.322138671875000000e+03  4.157944335937500000e+03  4.108472167968750000e+03  4.161000000000000000e+03
4.222027832031250000e+03  4.177555664062500000e+03  4.060361083984375000e+03  3.916527832031250000e+03  3.806277832031250000e+03  3.716222167968750000e+03  3.641694335937500000e+03  3.555916748046875000e+03  3.475722167968750000e+03  3.521083251953125000e+03  3.505861083984375000e+03  3.546055664062500000e+03  3.725000000000000000e+03  3.952916748046875000e+03  3.987666748046875000e+03  3.727250000000000000e+03  3.613861083984375000e+03  3.428888916015625000e+03  3.323444335937500000e+03  3.223055664062500000e+03  3.149000000000000000e+03  3.067138916015625000e+03  2.910722167968750000e+03  2.719722167968750000e+03  2.743027832031250000e+03  2.840583251953125000e+03  2.746277832031250000e+03  2.726833251953125000e+03  2.635444335937500000e+03  2.561277832031250000e+03  2.472055664062500000e+03  2.460750000000000000e+03  2.445361083984375000e+03  2.485111083984375000e+03  2.591500000000000000e+03  2.709527832031250000e+03  2.805166748046875000e+03  2.936111083984375000e+03  3.039333251953125000e+03  3.235388916015625000e+03  3.320250000000000000e+03  3.247222167968750000e+03  3.290500000000000000e+03  3.146527832031250000e+03  3.182500000000000000e+03  3.307416748046875000e+03  3.320472167968750000e+03  3.298555664062500000e+03  3.320416748046875000e+03  3.359638916015625000e+03  3.524111083984375000e+03  3.433250000000000000e+03  3.285222167968750000e+03  3.200833251953125000e+03  3.143750000000000000e+03  3.170972167968750000e+03  3.252416748046875000e+03  3.407444335937500000e+03  3.524138916015625000e+03  3.668416748046875000e+03  3.652833251953125000e+03  3.694555664062500000e+03  3.788722167968750000e+03  3.957916748046875000e+03  4.022500000000000000e+03  4.044666748046875000e+03  4.168722167968750000e+03  4.296416503906250000e+03  4.427694335937500000e+03  4.480000000000000000e+03  4.483583496093750000e+03  4.317805664062500000e+03  4.215888671875000000e+03  4.189277832031250000e+03  4.215861328125000000e+03  4.177055664062500000e+03  4.067972167968750000e+03
4.090111083984375000e+03  4.204416503906250000e+03  4.050277832031250000e+03  3.914055664062500000e+03  3.834750000000000000e+03  3.718000000000000000e+03  3.702972167968750000e+03  3.693777832031250000e+03  3.607722167968750000e+03  3.581805664062500000e+03  3.557305664062500000e+03  3.569472167968750000e+03  3.731833251953125000e+03  3.898027832031250000e+03  4.033861083984375000e+03  3.817638916015625000e+03  3.659750000000000000e+03  3.498750000000000000e+03  3.369861083984375000e+03  3.265388916015625000e+03  3.174888916015625000e+03  3.027777832031250000e+03  2.878305664062500000e+03  2.764694335937500000e+03  2.900555664062500000e+03  3.057138916015625000e+03  2.997972167968750000e+03  2.887861083984375000e+03  2.798750000000000000e+03  2.683055664062500000e+03  2.572000000000000000e+03  2.479416748046875000e+03  2.443833251953125000e+03  2.461722167968750000e+03  2.565611083984375000e+03  2.690555664062500000e+03  2.863527832031250000e+03  3.031527832031250000e+03  3.063805664062500000e+03  3.133694335937500000e+03  3.145000000000000000e+03  3.025250000000000000e+03  3.061833251953125000e+03  3.004277832031250000e+03  3.035250000000000000e+03  3.124555664062500000e+03  3.155500000000000000e+03  3.173527832031250000e+03  3.216638916015625000e+03  3.326555664062500000e+03  3.351250000000000000e+03  3.288444335937500000e+03  3.166472167968750000e+03  3.100666748046875000e+03  3.141694335937500000e+03  3.227444335937500000e+03  3.329333251953125000e+03  3.470611083984375000e+03  3.655861083984375000e+03  3.787166748046875000e+03  3.740055664062500000e+03  3.777194335937500000e+03  3.871805664062500000e+03  4.030138916015625000e+03  4.199666503906250000e+03  4.200638671875000000e+03  4.291166503906250000e+03  4.368277832031250000e+03  4.451083496093750000e+03  4.392222167968750000e+03  4.440222167968750000e+03  4.356444335937500000e+03  4.189055664062500000e+03  4.099333496093750000e+03  4.005111083984375000e+03  3.975555664062500000e+03  3.884750000000000000e+03
4.165166503906250000e+03  4.131055664062500000e+03  4.034500000000000000e+03  3.919833251953125000e+03  3.879166748046875000e+03  3.788361083984375000e+03  3.774750000000000000e+03  3.762388916015625000e+03  3.699388916015625000e+03  3.659388916015625000e+03  3.679833251953125000e+03  3.687166748046875000e+03  3.825055664062500000e+03  3.983416748046875000e+03  4.046888916015625000e+03  3.837694335937500000e+03  3.731472167968750000e+03  3.553944335937500000e+03  3.420333251953125000e+03  3.294416748046875000e+03  3.189222167968750000e+03  3.040694335937500000e+03  2.858277832031250000e+03  2.931416748046875000e+03  3.037611083984375000e+03  3.189083251953125000e+03  3.109944335937500000e+03  3.002916748046875000e+03  2.962055664062500000e+03  2.815083251953125000e+03  2.661722167968750000e+03  2.541777832031250000e+03  2.450694335937500000e+03  2.474777832031250000e+03  2.536472167968750000e+03  2.690444335937500000e+03  2.879305664062500000e+03  2.948527832031250000e+03  2.976055664062500000e+03  2.932694335937500000e+03  2.906888916015625000e+03  2.875166748046875000e+03  2.871722167968750000e+03  2.910694335937500000e+03  2.918712890625000000e+03  2.941527832031250000e+03  2.992638916015625000e+03  3.056027832031250000e+03  3.083888916015625000e+03  3.113666748046875000e+03  3.143527832031250000e+03  3.137972167968750000e+03  3.059583251953125000e+03  3.105027832031250000e+03  3.224722167968750000e+03  3.312583251953125000e+03  3.434583251953125000e+03  3.557027832031250000e+03  3.693055664062500000e+03  3.836444335937500000e+03  3.798416748046875000e+03  3.831916748046875000e+03  3.940916748046875000e+03  4.143333496093750000e+03  4.305888671875000000e+03  4.376333496093750000e+03  4.471638671875000000e+03  4.483500000000000000e+03  4.352944335937500000e+03  4.289805664062500000e+03  4.264027832031250000e+03  4.280750000000000000e+03  4.310666503906250000e+03  4.147416503906250000e+03  4.005416748046875000e+03  3.850944335937500000e+03  3.813861083984375000e+03
4.287444335937500000e+03  4.161500000000000000e+03  4.043727050781250000e+03  3.968361083984375000e+03  3.942583251953125000e+03  3.969388916015625000e+03  3.827694335937500000e+03  3.822222167968750000e+03  3.733305664062500000e+03  3.751027832031250000e+03  3.792527832031250000e+03  3.808611083984375000e+03  3.992500000000000000e+03  4.093750000000000000e+03  3.932000000000000000e+03  3.801416748046875000e+03  3.591527832031250000e+03  3.493111083984375000e+03  3.388000000000000000e+03  3.256777832031250000e+03  3.153750000000000000e+03  2.980083251953125000e+03  2.936388916015625000e+03  3.092416748046875000e+03  3.239111083984375000e+03  3.342083251953125000e+03  3.279111083984375000e+03  3.156583251953125000e+03  3.139416748046875000e+03  2.881722167968750000e+03  2.710111083984375000e+03  2.562888916015625000e+03  2.501250000000000000e+03  2.465611083984375000e+03  2.511555664062500000e+03  2.644027832031250000e+03  2.765777832031250000e+03  2.769000000000000000e+03  2.785722167968750000e+03  2.776777832031250000e+03  2.820861083984375000e+03  2.879638916015625000e+03  2.951416748046875000e+03  3.007305664062500000e+03  3.027944335937500000e+03  2.996027832031250000e+03  3.014583251953125000e+03  3.042777832031250000e+03  3.010777832031250000e+03  3.015810546875000000e+03  3.020472167968750000e+03  3.031861083984375000e+03  3.095694335937500000e+03  3.200166748046875000e+03  3.309611083984375000e+03  3.421722167968750000e+03  3.566583251953125000e+03  3.673694335937500000e+03  3.831916748046875000e+03  3.914527832031250000e+03  3.838277832031250000e+03  3.868055664062500000e+03  3.956972167968750000e+03  4.153888671875000000e+03  4.364250000000000000e+03  4.565777832031250000e+03  4.622527832031250000e+03  4.532194335937500000e+03  4.344333496093750000e+03  4.224111328125000000e+03  4.151416503906250000e+03  4.124555664062500000e+03  4.124555664062500000e+03  4.125500000000000000e+03  4.032111083984375000e+03  3.872222167968750000e+03  3.748305664062500000e+03
4.197972167968750000e+03  4.261333496093750000e+03  4.070638916015625000e+03  4.027916748046875000e+03  4.025138916015625000e+03  4.088361083984375000e+03  3.899805664062500000e+03  3.855250000000000000e+03  3.803722167968750000e+03  3.894444335937500000e+03  3.874777832031250000e+03  3.919250000000000000e+03  4.129138671875000000e+03  3.971222167968750000e+03  3.728861083984375000e+03  3.594638916015625000e+03  3.443444335937500000e+03  3.337166748046875000e+03  3.264472167968750000e+03  3.178055664062500000e+03  3.050361083984375000e+03  2.976111083984375000e+03  3.043500000000000000e+03  3.246361083984375000e+03  3.370611083984375000e+03  3.488000000000000000e+03  3.454305664062500000e+03  3.357833251953125000e+03  3.170861083984375000e+03  2.908500000000000000e+03  2.726027832031250000e+03  2.595222167968750000e+03  2.530083251953125000e+03  2.502361083984375000e+03  2.524222167968750000e+03  2.620472167968750000e+03  2.633388916015625000e+03  2.677333251953125000e+03  2.755833251953125000e+03  2.842555664062500000e+03  2.981750000000000000e+03  3.058972167968750000e+03  3.151083251953125000e+03  3.203833251953125000e+03  3.260666748046875000e+03  3.230972167968750000e+03  3.180055664062500000e+03  3.172916748046875000e+03  3.129083251953125000e+03  3.041277832031250000e+03  3.044777832031250000e+03  3.049777832031250000e+03  3.179666748046875000e+03  3.305527832031250000e+03  3.433666748046875000e+03  3.558277832031250000e+03  3.670555664062500000e+03  3.814250000000000000e+03  3.957055664062500000e+03  4.002972167968750000e+03  3.874666748046875000e+03  3.889888916015625000e+03  3.923361083984375000e+03  4.069833251953125000e+03  4.309388671875000000e+03  4.570166503906250000e+03  4.763166503906250000e+03  4.559861328125000000e+03  4.385277832031250000e+03  4.262722167968750000e+03  4.167500000000000000e+03  4.030222167968750000e+03  3.954027832031250000e+03  3.924305664062500000e+03  4.041027832031250000e+03  3.909833251953125000e+03  3.756916748046875000e+03
4.008777832031250000e+03  4.265305664062500000e+03  4.154027832031250000e+03  4.178833496093750000e+03  4.188555664062500000e+03  4.116222167968750000e+03  3.997833251953125000e+03  3.899638916015625000e+03  3.921472167968750000e+03  3.979611083984375000e+03  3.927250000000000000e+03  3.970194335937500000e+03  4.003055664062500000e+03  3.867500000000000000e+03  3.597250000000000000e+03  3.440527832031250000e+03  3.311500000000000000e+03  3.212638916015625000e+03  3.153083251953125000e+03  3.082583251953125000e+03  3.046055664062500000e+03  3.055583251953125000e+03  3.194250000000000000e+03  3.320583251953125000e+03  3.456750000000000000e+03  3.663277832031250000e+03  3.626916748046875000e+03  3.372611083984375000e+03  3.198916748046875000e+03  2.911305664062500000e+03  2.727805664062500000e+03  2.622500000000000000e+03  2.558833251953125000e+03  2.513166748046875000e+03  2.554694335937500000e+03  2.675277832031250000e+03  2.800444335937500000e+03  2.832777832031250000e+03  2.916555664062500000e+03  3.019000000000000000e+03  3.188972167968750000e+03  3.250222167968750000e+03  3.351305664062500000e+03  3.400666748046875000e+03  3.501472167968750000e+03  3.399944335937500000e+03  3.358861083984375000e+03  3.334472167968750000e+03  3.280861083984375000e+03  3.198555664062500000e+03  3.083750000000000000e+03  3.146611083984375000e+03  3.303222167968750000e+03  3.446611083984375000e+03  3.555750000000000000e+03  3.678333251953125000e+03  3.813166748046875000e+03  3.930944335937500000e+03  4.111805664062500000e+03  4.041000000000000000e+03  3.914027832031250000e+03  3.904583251953125000e+03  3.946805664062500000e+03  4.037333251953125000e+03  4.252666503906250000e+03  4.507166503906250000e+03  4.703388671875000000e+03  4.605833496093750000e+03  4.502250000000000000e+03  4.392750000000000000e+03  4.224611328125000000e+03  3.993888916015625000e+03  3.901833251953125000e+03  3.860888916015625000e+03  3.897083251953125000e+03  3.813277832031250000e+03  3.751444335937500000e+03
3.889250000000000000e+03  3.998694335937500000e+03  4.267750000000000000e+03  4.390277832031250000e+03  4.262000000000000000e+03  4.259750000000000000e+03  4.083777832031250000e+03  3.992500000000000000e+03  4.002055664062500000e+03  4.069777832031250000e+03  3.971888916015625000e+03  4.032444335937500000e+03  3.951805664062500000e+03  3.741305664062500000e+03  3.551138916015625000e+03  3.395666748046875000e+03  3.259305664062500000e+03  3.178027832031250000e+03  3.143194335937500000e+03  3.138083251953125000e+03  3.173833251953125000e+03  3.251638916015625000e+03  3.268944335937500000e+03  3.413305664062500000e+03  3.571250000000000000e+03  3.620888916015625000e+03  3.542222167968750000e+03  3.375500000000000000e+03  3.102000000000000000e+03  2.871000000000000000e+03  2.726111083984375000e+03  2.608166748046875000e+03  2.540083251953125000e+03  2.571666748046875000e+03  2.639694335937500000e+03  2.729000000000000000e+03  2.778277832031250000e+03  2.891277832031250000e+03  3.061388916015625000e+03  3.185111083984375000e+03  3.302277832031250000e+03  3.458666748046875000e+03  3.506388916015625000e+03  3.575305664062500000e+03  3.547277832031250000e+03  3.584583251953125000e+03  3.521361083984375000e+03  3.457166748046875000e+03  3.432222167968750000e+03  3.284500000000000000e+03  3.155750000000000000e+03  3.207638916015625000e+03  3.360777832031250000e+03  3.559611083984375000e+03  3.714944335937500000e+03  3.795694335937500000e+03  3.852166748046875000e+03  3.952222167968750000e+03  4.088083251953125000e+03  4.173083496093750000e+03  4.032611083984375000e+03  3.934916748046875000e+03  3.983972167968750000e+03  4.083694335937500000e+03  4.283250000000000000e+03  4.521694335937500000e+03  4.600638671875000000e+03  4.441138671875000000e+03  4.373972167968750000e+03  4.274666503906250000e+03  4.155361328125000000e+03  4.039888916015625000e+03  3.903805664062500000e+03  3.802166748046875000e+03  3.733611083984375000e+03  3.669805664062500000e+03  3.630305664062500000e+03
3.741777832031250000e+03  3.845694335937500000e+03  4.080555664062500000e+03  4.234944335937500000e+03  4.132888671875000000e+03  4.114888671875000000e+03  4.110388671875000000e+03  4.110416503906250000e+03  4.209611328125000000e+03  4.132972167968750000e+03  4.092611083984375000e+03  4.119722167968750000e+03  3.862777832031250000e+03  3.684861083984375000e+03  3.501166748046875000e+03  3.356805664062500000e+03  3.250194335937500000e+03  3.218222167968750000e+03  3.215416748046875000e+03  3.234055664062500000e+03  3.326138916015625000e+03  3.423750000000000000e+03  3.424305664062500000e+03  3.528944335937500000e+03  3.660416748046875000e+03  3.540611083984375000e+03  3.460833251953125000e+03  3.309666748046875000e+03  3.066361083984375000e+03  2.874888916015625000e+03  2.723361083984375000e+03  2.651055664062500000e+03  2.581638916015625000e+03  2.611583251953125000e+03  2.680444335937500000e+03  2.764833251953125000e+03  2.881055664062500000e+03  2.903722167968750000e+03  2.993472167968750000e+03  3.147444335937500000e+03  3.323638916015625000e+03  3.536750000000000000e+03  3.719777832031250000e+03  3.788944335937500000e+03  3.647000000000000000e+03  3.753388916015625000e+03  3.736111083984375000e+03  3.650027832031250000e+03  3.492250000000000000e+03  3.296444335937500000e+03  3.281666748046875000e+03  3.247555664062500000e+03  3.361694335937500000e+03  3.515916748046875000e+03  3.641500000000000000e+03  3.650194335937500000e+03  3.709888916015625000e+03  3.805305664062500000e+03  3.935055664062500000e+03  4.076527832031250000e+03  4.149750000000000000e+03  4.043138916015625000e+03  4.087805664062500000e+03  4.248527832031250000e+03  4.413388671875000000e+03  4.573277832031250000e+03  4.452388671875000000e+03  4.414888671875000000e+03  4.378527832031250000e+03  4.362138671875000000e+03  4.291972167968750000e+03  4.155166503906250000e+03  3.986361083984375000e+03  3.819416748046875000e+03  3.709055664062500000e+03  3.669833251953125000e+03  3.641805664062500000e+03
3.737888916015625000e+03  3.851083251953125000e+03  4.081138916015625000e+03  4.092138916015625000e+03  4.041638916015625000e+03  4.021833251953125000e+03  4.010055664062500000e+03  4.023722167968750000e+03  4.128222167968750000e+03  4.324472167968750000e+03  4.270472167968750000e+03  4.045361083984375000e+03  3.839777832031250000e+03  3.661750000000000000e+03  3.523138916015625000e+03  3.364250000000000000e+03  3.301055664062500000e+03  3.341250000000000000e+03  3.391305664062500000e+03  3.409194335937500000e+03  3.486666748046875000e+03  3.633166748046875000e+03  3.606666748046875000e+03  3.660972167968750000e+03  3.610611083984375000e+03  3.479666748046875000e+03  3.385194335937500000e+03  3.251611083984375000e+03  3.074444335937500000e+03  2.848888916015625000e+03  2.749694335937500000e+03  2.689083251953125000e+03  2.620805664062500000e+03  2.628750000000000000e+03  2.673083251953125000e+03  2.790138916015625000e+03  2.929388916015625000e+03  2.977527832031250000e+03  3.041777832031250000e+03  3.164250000000000000e+03  3.299472167968750000e+03  3.521583251953125000e+03  3.729250000000000000e+03  3.908138916015625000e+03  3.781194335937500000e+03  3.780000000000000000e+03  3.871777832031250000e+03  3.700833251953125000e+03  3.521638916015625000e+03  3.370583251953125000e+03  3.325166748046875000e+03  3.352750000000000000e+03  3.444944335937500000e+03  3.478777832031250000e+03  3.530583251953125000e+03  3.578194335937500000e+03  3.747611083984375000e+03  3.773777832031250000e+03  3.825027832031250000e+03  3.866916748046875000e+03  3.919694335937500000e+03  3.927500000000000000e+03  4.013861083984375000e+03  4.214194335937500000e+03  4.388055664062500000e+03  4.566361328125000000e+03  4.518944335937500000e+03  4.495222167968750000e+03  4.495361328125000000e+03  4.352555664062500000e+03  4.220916503906250000e+03  4.175861328125000000e+03  4.061944335937500000e+03  3.835666748046875000e+03  3.757694335937500000e+03  3.705722167968750000e+03  3.652861083984375000e+03
3.830444335937500000e+03  3.930861083984375000e+03  4.165472167968750000e+03  4.029111083984375000e+03  3.970888916015625000e+03  3.927777832031250000e+03  3.919861083984375000e+03  4.008722167968750000e+03  4.082777832031250000e+03  4.336805664062500000e+03  4.374250000000000000e+03  4.083277832031250000e+03  3.846055664062500000e+03  3.712583251953125000e+03  3.613611083984375000e+03  3.496833251953125000e+03  3.459750000000000000e+03  3.463527832031250000e+03  3.489500000000000000e+03  3.557333251953125000e+03  3.674138916015625000e+03  3.724333251953125000e+03  3.764666748046875000e+03  3.764194335937500000e+03  3.569555664062500000e+03  3.446888916015625000e+03  3.323805664062500000e+03  3.215916748046875000e+03  3.067694335937500000e+03  2.859222167968750000e+03  2.754000000000000000e+03  2.684527832031250000e+03  2.620333251953125000e+03  2.662916748046875000e+03  2.717722167968750000e+03  2.783888916015625000e+03  2.876694335937500000e+03  3.004000000000000000e+03  3.082500000000000000e+03  3.177083251953125000e+03  3.319944335937500000e+03  3.502750000000000000e+03  3.698944335937500000e+03  3.945972167968750000e+03  3.860277832031250000e+03  3.831861083984375000e+03  3.853944335937500000e+03  3.699472167968750000e+03  3.547222167968750000e+03  3.381861083984375000e+03  3.346388916015625000e+03  3.379111083984375000e+03  3.481861083984375000e+03  3.475250000000000000e+03  3.502666748046875000e+03  3.569138916015625000e+03  3.647333251953125000e+03  3.682916748046875000e+03  3.771750000000000000e+03  3.823222167968750000e+03  3.871138916015625000e+03  3.917500000000000000e+03  3.983055664062500000e+03  4.069527832031250000e+03  4.221250000000000000e+03  4.429972167968750000e+03  4.673555664062500000e+03  4.573138671875000000e+03  4.367583496093750000e+03  4.249111328125000000e+03  4.170194335937500000e+03  4.134805664062500000e+03  3.995055664062500000e+03  3.875055664062500000e+03  3.798055664062500000e+03  3.741694335937500000e+03  3.655694335937500000e+03
3.858805664062500000e+03  4.061527832031250000e+03  4.103416503906250000e+03  4.006277832031250000e+03  3.916777832031250000e+03  3.850027832031250000e+03  3.866222167968750000e+03  3.967555664062500000e+03  4.014444335937500000e+03  4.250055664062500000e+03  4.391750000000000000e+03  4.146111328125000000e+03  3.928611083984375000e+03  3.821250000000000000e+03  3.769138916015625000e+03  3.682888916015625000e+03  3.701416748046875000e+03  3.604750000000000000e+03  3.612916748046875000e+03  3.751194335937500000e+03  3.786194335937500000e+03  3.858888916015625000e+03  3.838888916015625000e+03  3.699388916015625000e+03  3.552500000000000000e+03  3.457027832031250000e+03  3.366111083984375000e+03  3.295555664062500000e+03  3.052888916015625000e+03  2.881888916015625000e+03  2.745888916015625000e+03  2.667722167968750000e+03  2.641611083984375000e+03  2.657555664062500000e+03  2.755972167968750000e+03  2.883750000000000000e+03  2.955583251953125000e+03  2.983722167968750000e+03  3.124944335937500000e+03  3.211277832031250000e+03  3.358472167968750000e+03  3.562055664062500000e+03  3.742583251953125000e+03  3.905194335937500000e+03  3.963500000000000000e+03  3.964888916015625000e+03  3.854666748046875000e+03  3.707444335937500000e+03  3.535444335937500000e+03  3.389527832031250000e+03  3.370861083984375000e+03  3.436138916015625000e+03  3.569361083984375000e+03  3.588138916015625000e+03  3.561027832031250000e+03  3.611555664062500000e+03  3.646611083984375000e+03  3.723750000000000000e+03  3.796583251953125000e+03  3.831888916015625000e+03  3.862000000000000000e+03  3.953166748046875000e+03  4.006666748046875000e+03  4.090333251953125000e+03  4.183333496093750000e+03  4.413638671875000000e+03  4.614055664062500000e+03  4.520361328125000000e+03  4.424444335937500000e+03  4.326833496093750000e+03  4.207444335937500000e+03  4.107944335937500000e+03  4.000027832031250000e+03  3.918444335937500000e+03  3.868888916015625000e+03  3.799388916015625000e+03  3.687833251953125000e+03
3.915361083984375000e+03  4.106944335937500000e+03  4.051861083984375000e+03  3.875805664062500000e+03  3.780444335937500000e+03  3.812833251953125000e+03  3.842666748046875000e+03  3.874000000000000000e+03  3.890277832031250000e+03  4.029805664062500000e+03  4.167722167968750000e+03  4.156694335937500000e+03  3.943416748046875000e+03  3.888944335937500000e+03  3.894055664062500000e+03  3.859000000000000000e+03  3.900833251953125000e+03  3.763000000000000000e+03  3.770000000000000000e+03  3.719777832031250000e+03  3.656111083984375000e+03  3.683916748046875000e+03  3.764388916015625000e+03  3.603027832031250000e+03  3.544833251953125000e+03  3.440444335937500000e+03  3.365416748046875000e+03  3.220277832031250000e+03  3.031194335937500000e+03  2.877250000000000000e+03  2.749111083984375000e+03  2.668472167968750000e+03  2.636583251953125000e+03  2.690111083984375000e+03  2.784222167968750000e+03  2.933888916015625000e+03  3.041666748046875000e+03  3.108694335937500000e+03  3.148444335937500000e+03  3.265361083984375000e+03  3.414416748046875000e+03  3.601833251953125000e+03  3.793388916015625000e+03  3.948833251953125000e+03  4.101638671875000000e+03  3.987138916015625000e+03  3.858555664062500000e+03  3.717388916015625000e+03  3.545000000000000000e+03  3.426222167968750000e+03  3.410222167968750000e+03  3.522555664062500000e+03  3.615416748046875000e+03  3.590472167968750000e+03  3.668250000000000000e+03  3.681250000000000000e+03  3.747361083984375000e+03  3.769250000000000000e+03  3.769895263671875000e+03  3.820166748046875000e+03  3.907000000000000000e+03  3.971250000000000000e+03  4.076388916015625000e+03  4.176833496093750000e+03  4.324638671875000000e+03  4.464972167968750000e+03  4.588166503906250000e+03  4.656083496093750000e+03  4.467888671875000000e+03  4.273722167968750000e+03  4.196583496093750000e+03  4.220555664062500000e+03  4.190333496093750000e+03  4.064916748046875000e+03  3.995944335937500000e+03  3.934305664062500000e+03  3.792555664062500000e+03
3.914138916015625000e+03  4.152388671875000000e+03  3.963055664062500000e+03  3.696722167968750000e+03  3.590722167968750000e+03  3.707527832031250000e+03  3.773944335937500000e+03  3.767972167968750000e+03  3.866805664062500000e+03  3.972194335937500000e+03  4.119555664062500000e+03  4.133333496093750000e+03  4.039500000000000000e+03  4.080194335937500000e+03  4.035500000000000000e+03  4.042666748046875000e+03  4.137722167968750000e+03  3.896277832031250000e+03  3.731888916015625000e+03  3.616055664062500000e+03  3.565194335937500000e+03  3.575361083984375000e+03  3.680805664062500000e+03  3.521055664062500000e+03  3.374388916015625000e+03  3.307555664062500000e+03  3.246583251953125000e+03  3.140555664062500000e+03  2.955500000000000000e+03  2.831111083984375000e+03  2.775111083984375000e+03  2.663361083984375000e+03  2.656750000000000000e+03  2.695777832031250000e+03  2.805888916015625000e+03  2.920527832031250000e+03  3.063333251953125000e+03  3.110055664062500000e+03  3.205388916015625000e+03  3.312111083984375000e+03  3.490250000000000000e+03  3.662916748046875000e+03  3.854583251953125000e+03  4.048500000000000000e+03  4.065500000000000000e+03  3.894777832031250000e+03  3.774305664062500000e+03  3.666194335937500000e+03  3.560916748046875000e+03  3.479444335937500000e+03  3.460222167968750000e+03  3.598333251953125000e+03  3.793333251953125000e+03  3.717472167968750000e+03  3.721083251953125000e+03  3.748500000000000000e+03  3.918777832031250000e+03  3.818805664062500000e+03  3.857111083984375000e+03  3.893666748046875000e+03  3.934305664062500000e+03  4.067555664062500000e+03  4.252250000000000000e+03  4.334250000000000000e+03  4.480000000000000000e+03  4.600083496093750000e+03  4.679000000000000000e+03  4.696027832031250000e+03  4.514194335937500000e+03  4.394861328125000000e+03  4.403333496093750000e+03  4.451250000000000000e+03  4.227111328125000000e+03  4.084944335937500000e+03  3.962694335937500000e+03  3.921777832031250000e+03  3.853972167968750000e+03
3.944611083984375000e+03  4.014166748046875000e+03  3.806166748046875000e+03  3.600500000000000000e+03  3.502333251953125000e+03  3.517527832031250000e+03  3.612055664062500000e+03  3.738527832031250000e+03  3.871000000000000000e+03  3.998638916015625000e+03  4.079611083984375000e+03  4.240000000000000000e+03  4.186027832031250000e+03  4.237750000000000000e+03  4.207722167968750000e+03  4.222000000000000000e+03  4.237055664062500000e+03  3.959416748046875000e+03  3.801083251953125000e+03  3.633222167968750000e+03  3.520222167968750000e+03  3.516722167968750000e+03  3.591027832031250000e+03  3.461277832031250000e+03  3.268972167968750000e+03  3.169250000000000000e+03  3.099638916015625000e+03  2.981000000000000000e+03  2.875500000000000000e+03  2.823861083984375000e+03  2.790250000000000000e+03  2.651388916015625000e+03  2.670250000000000000e+03  2.707527832031250000e+03  2.878194335937500000e+03  2.963694335937500000e+03  3.075527832031250000e+03  3.156805664062500000e+03  3.265361083984375000e+03  3.410194335937500000e+03  3.581861083984375000e+03  3.726750000000000000e+03  3.934250000000000000e+03  4.133861328125000000e+03  4.111916503906250000e+03  3.914638916015625000e+03  3.766444335937500000e+03  3.655194335937500000e+03  3.563388916015625000e+03  3.511472167968750000e+03  3.528805664062500000e+03  3.729777832031250000e+03  3.963833251953125000e+03  3.804361083984375000e+03  3.779694335937500000e+03  3.791444335937500000e+03  3.885777832031250000e+03  3.976333251953125000e+03  3.924500000000000000e+03  3.958500000000000000e+03  3.982444335937500000e+03  4.105222167968750000e+03  4.308611328125000000e+03  4.504194335937500000e+03  4.611333496093750000e+03  4.797333496093750000e+03  4.865361328125000000e+03  4.879055664062500000e+03  4.718694335937500000e+03  4.566944335937500000e+03  4.435277832031250000e+03  4.239250000000000000e+03  4.065944335937500000e+03  4.019638916015625000e+03  3.973388916015625000e+03  3.944027832031250000e+03  3.906305664062500000e+03
3.880138916015625000e+03  4.044694335937500000e+03  3.768138916015625000e+03  3.571833251953125000e+03  3.460555664062500000e+03  3.454472167968750000e+03  3.645888916015625000e+03  3.695555664062500000e+03  3.906944335937500000e+03  3.865972167968750000e+03  3.927416748046875000e+03  4.232194335937500000e+03  4.457194335937500000e+03  4.441055664062500000e+03  4.290277832031250000e+03  4.258055664062500000e+03  4.348750000000000000e+03  4.060277832031250000e+03  3.833138916015625000e+03  3.652944335937500000e+03  3.504083251953125000e+03  3.454194335937500000e+03  3.470500000000000000e+03  3.368972167968750000e+03  3.229638916015625000e+03  3.158583251953125000e+03  3.020166748046875000e+03  2.945861083984375000e+03  2.906388916015625000e+03  2.828777832031250000e+03  2.772361083984375000e+03  2.653277832031250000e+03  2.694250000000000000e+03  2.762722167968750000e+03  2.952083251953125000e+03  3.070111083984375000e+03  3.137611083984375000e+03  3.180833251953125000e+03  3.309722167968750000e+03  3.485833251953125000e+03  3.687833251953125000e+03  3.830305664062500000e+03  4.029583251953125000e+03  4.203750000000000000e+03  4.089222167968750000e+03  3.942000000000000000e+03  3.821027832031250000e+03  3.694805664062500000e+03  3.615666748046875000e+03  3.537972167968750000e+03  3.603805664062500000e+03  3.791027832031250000e+03  4.041333251953125000e+03  4.004166748046875000e+03  3.825694335937500000e+03  3.824888916015625000e+03  3.900638916015625000e+03  4.078333251953125000e+03  3.996555664062500000e+03  3.991250000000000000e+03  4.019527832031250000e+03  4.173555664062500000e+03  4.367472167968750000e+03  4.636000000000000000e+03  4.798250000000000000e+03  4.997333496093750000e+03  5.074555664062500000e+03  5.005611328125000000e+03  4.761861328125000000e+03  4.498555664062500000e+03  4.291527832031250000e+03  4.119361328125000000e+03  4.064888916015625000e+03  4.051972167968750000e+03  4.027361083984375000e+03  3.993805664062500000e+03  3.940694335937500000e+03
3.856194335937500000e+03  4.006361083984375000e+03  3.848000000000000000e+03  3.590055664062500000e+03  3.439555664062500000e+03  3.401916748046875000e+03  3.629805664062500000e+03  3.636111083984375000e+03  3.730333251953125000e+03  3.801416748046875000e+03  3.914194335937500000e+03  4.064916748046875000e+03  4.325944335937500000e+03  4.332777832031250000e+03  4.227555664062500000e+03  4.194111328125000000e+03  4.387500000000000000e+03  4.171111328125000000e+03  3.975166748046875000e+03  3.682333251953125000e+03  3.496166748046875000e+03  3.405222167968750000e+03  3.361222167968750000e+03  3.383111083984375000e+03  3.198138916015625000e+03  3.070833251953125000e+03  2.986638916015625000e+03  2.903888916015625000e+03  2.890611083984375000e+03  2.852777832031250000e+03  2.719222167968750000e+03  2.663611083984375000e+03  2.708861083984375000e+03  2.802416748046875000e+03  2.981638916015625000e+03  3.145527832031250000e+03  3.291194335937500000e+03  3.292777832031250000e+03  3.423666748046875000e+03  3.559833251953125000e+03  3.647888916015625000e+03  3.837944335937500000e+03  3.989694335937500000e+03  4.172194335937500000e+03  4.033166748046875000e+03  3.908694335937500000e+03  3.813972167968750000e+03  3.732666748046875000e+03  3.648250000000000000e+03  3.598527832031250000e+03  3.628388916015625000e+03  3.860250000000000000e+03  4.045222167968750000e+03  4.132138671875000000e+03  3.908250000000000000e+03  3.896277832031250000e+03  3.959138916015625000e+03  4.088222167968750000e+03  4.063388916015625000e+03  4.069472167968750000e+03  4.122944335937500000e+03  4.252694335937500000e+03  4.535444335937500000e+03  4.698277832031250000e+03  4.900888671875000000e+03  5.046888671875000000e+03  4.886000000000000000e+03  4.671194335937500000e+03  4.396777832031250000e+03  4.258555664062500000e+03  4.157083496093750000e+03  4.101305664062500000e+03  4.083916748046875000e+03  4.050944335937500000e+03  4.033000000000000000e+03  4.011305664062500000e+03  3.944555664062500000e+03
3.738777832031250000e+03  3.912472167968750000e+03  3.821305664062500000e+03  3.613388916015625000e+03  3.440111083984375000e+03  3.354527832031250000e+03  3.486083251953125000e+03  3.563944335937500000e+03  3.667777832031250000e+03  3.749305664062500000e+03  3.760555664062500000e+03  3.888111083984375000e+03  4.080055664062500000e+03  4.182861328125000000e+03  4.097638671875000000e+03  4.179194335937500000e+03  4.303805664062500000e+03  4.229111328125000000e+03  3.947805664062500000e+03  3.710000000000000000e+03  3.525416748046875000e+03  3.391222167968750000e+03  3.310777832031250000e+03  3.261388916015625000e+03  3.189916748046875000e+03  3.088361083984375000e+03  2.955250000000000000e+03  2.866500000000000000e+03  2.784055664062500000e+03  2.740500000000000000e+03  2.692833251953125000e+03  2.685222167968750000e+03  2.722861083984375000e+03  2.892472167968750000e+03  3.055416748046875000e+03  3.173666748046875000e+03  3.370888916015625000e+03  3.438833251953125000e+03  3.504750000000000000e+03  3.675444335937500000e+03  3.760250000000000000e+03  3.833027832031250000e+03  3.973416748046875000e+03  4.140750000000000000e+03  4.107277832031250000e+03  3.957305664062500000e+03  3.809055664062500000e+03  3.727138916015625000e+03  3.668027832031250000e+03  3.623583251953125000e+03  3.641416748046875000e+03  3.852888916015625000e+03  4.056500000000000000e+03  4.225777832031250000e+03  3.990305664062500000e+03  3.970333251953125000e+03  3.996916748046875000e+03  4.119138671875000000e+03  4.246027832031250000e+03  4.263138671875000000e+03  4.275944335937500000e+03  4.384777832031250000e+03  4.595833496093750000e+03  4.766527832031250000e+03  5.036361328125000000e+03  5.059277832031250000e+03  4.758083496093750000e+03  4.567500000000000000e+03  4.414361328125000000e+03  4.250833496093750000e+03  4.168777832031250000e+03  4.119638671875000000e+03  4.095444335937500000e+03  4.108000000000000000e+03  4.116500000000000000e+03  4.026694335937500000e+03  3.957777832031250000e+03
